-36.229470943467682,-3.1488058171982858,-15.457597142055635,0.94,0.941,0.908,1,
28.822933578087628,-3.0282303916351339,-15.762041224149925,1,1,1,1,
29.716806891078583,-3.1912373673645411,-15.759757841676825,1,1,1,1,
35.076241476881265,-2.6629440746478439,-15.305132348970574,0.792,0.812,0.744,1,
36.010371148345598,-2.5586479175673804,-15.348838386898544,0.792,0.806,0.774,1,
135.00635710888776,-3.1490494404504132,-15.425605536824039,0.764,0.781,0.761,1,
136.08327822950628,-2.6510358753739638,-15.273719565129795,0.694,0.831,0.808,1,
136.82261704836662,-2.7160905118250867,-15.633143643754011,0.84,0.842,0.834,1,
-42.892588268708678,-1.9692299240797739,-15.348405490530348,0.875,0.877,0.824,1,
-41.879711663877217,-1.9248960013826255,-15.339858639997761,0.861,0.866,0.79,1,
-40.647796046773543,-1.8985062695936472,-15.184210487679263,0.85,0.851,0.759,1,
-39.679846944384863,-1.7936079005204109,-15.335475816347643,0.863,0.869,0.777,1,
-38.39936530998844,-1.8650569669656503,-15.310987631766137,0.864,0.87,0.831,1,
-37.308587544943592,-1.9002006019674944,-15.448808027558879,0.828,0.836,0.774,1,
-36.543586479945986,-2.1910458188281745,-15.484413090310623,0.969,0.963,0.95,1,
34.150500326077804,-1.4889233392523238,-15.599242427697391,1,0.976,0.898,1,
34.743154027890299,-1.6033213949975811,-15.330269168489508,0.781,0.799,0.736,1,
35.906001950756774,-1.9582979314516913,-15.158513207818858,0.831,0.84,0.789,1,
37.135654772736949,-1.466709433910196,-15.332454857773236,0.814,0.811,0.761,1,
135.16853317403155,-1.5774014553923688,-15.321148301836729,0.864,0.874,0.765,1,
135.94448772879019,-1.7082655809494418,-15.364875969225977,0.867,0.856,0.812,1,
136.84428514562086,-1.9256412213053409,-15.651767057534016,0.955,0.982,0.967,1,
-61.661928517186546,-0.49151742928132958,-15.445738690293421,0.735,0.729,0.846,1,
-41.522491535653792,-0.44649893602061175,-15.720251253696915,0.957,0.95,0.936,1,
-40.722275171962139,-0.62696613494311881,-15.329375637700981,0.876,0.879,0.8,1,
-39.492098339683203,-0.629111169997143,-15.183671259227927,0.875,0.875,0.785,1,
-38.593102263888845,-0.40857287329665315,-15.331779832895576,0.887,0.877,0.794,1,
-37.29545308217952,-1.1090916411571339,-15.675041395122879,0.916,0.915,0.853,1,
-36.045464340606628,-0.87722562950282024,-15.313178588323151,0.997,0.997,0.993,1,
34.835404536956439,-0.68925281794918192,-15.168597143934148,0.872,0.884,0.845,1,
35.887565052068467,-0.87635388584833551,-15.074787315624283,0.913,0.926,0.901,1,
37.213655036723026,-1.1828727701868047,-15.700821467135029,1,0.992,0.996,1,
135.28030406348535,-0.96083002830482656,-15.459207040180445,0.767,0.784,0.733,1,
136.17448900686003,-0.78308113586444961,-15.647569588119747,0.975,0.975,0.958,1,
-62.280540996676457,0.25707910007610746,-15.330227177703936,0.681,0.74,0.774,1,
-61.99035151172427,0.4355916375892166,-15.379722495489357,0.52,0.521,0.629,1,
-60.09974844841642,0.72706452101556351,-15.177180852295191,0.453,0.437,0.569,1,
-59.246464098908767,0.91787078153826585,-15.073787694598884,0.493,0.493,0.603,1,
-58.13349508671822,1.1604785244723193,-15.586088538489252,0.373,0.365,0.471,1,
-40.71794346983404,0.51796085417776805,-15.525260975171873,0.802,0.796,0.708,1,
-39.683123216738835,0.49986147378500156,-15.315010517159555,0.858,0.847,0.747,1,
-38.696294205880221,0.45612059165256458,-15.423207134254158,0.829,0.82,0.69,1,
35.568921482891369,0.26039870514693586,-15.519994335211894,1,1,1,1,
173.07842514124872,0.006072691576264333,-15.33951045644244,0.431,0.575,0.437,1,
174.1532652476252,1.1165228949039374,-15.172658260951266,0.517,0.6,0.48,1,
-61.335058079750596,1.8314738657759788,-14.998431194296892,0.309,0.305,0.343,1,
-60.26507098849887,1.8719344906159563,-15.397674159274288,0.305,0.313,0.331,1,
-59.07711750080896,1.8557979448707851,-15.586482635886467,0.303,0.291,0.333,1,
-58.322711684969384,1.7739170474528887,-15.306807334302119,0.38,0.391,0.403,1,
-39.993168131851611,1.3264575306004556,-15.690976038058579,0.93,0.921,0.782,1,
152.8724502070844,1.5196478148027381,-15.656355795954369,1,1,1,1,
173.61214247797184,1.8890157231715721,-15.243422649697525,0.878,0.884,0.823,1,
-62.36181186256573,2.752552296669819,-14.975202391838138,0.42,0.486,0.341,1,
-61.376723977606403,3.0974563402286215,-15.236428525978173,0.424,0.438,0.399,1,
-60.628785781437209,3.1223604462737864,-15.199173296518708,0.487,0.49,0.463,1,
-58.885740286124808,2.493773983853198,-15.767114475693234,0.322,0.327,0.276,1,
173.89256854793643,2.9846123184523732,-15.167576275889882,0.683,0.752,0.613,1,
-62.373680482394889,4.0817372553192399,-15.586827062937235,0.452,0.431,0.548,1,
-61.743665175351403,4.0120975749652343,-15.324387627742574,0.659,0.582,0.796,1,
-60.317778234053876,4.2927224110450579,-15.309453323537337,0.784,0.638,0.951,1,
-59.693407830560538,4.7958078873006071,-15.117629285820723,0.816,0.603,0.988,1,
136.5013157335998,4.2025895511543787,-15.351951216315552,0.959,0.956,0.909,1,
137.23284725109198,4.0297009322498578,-15.345012540705916,0.861,0.872,0.821,1,
138.74347750668204,4.2477760910131224,-15.211028278514505,0.916,0.919,0.882,1,
174.25236075727213,4.4529710953611357,-15.598991416254648,0.859,0.876,0.788,1,
-61.853850568550918,5.2667621454666191,-14.805175022789552,0.749,0.636,0.955,1,
-59.957036137365527,5.2675532185142426,-15.553354094646199,0.713,0.617,0.936,1,
-59.647795025525305,5.4505209018962386,-15.200956767588147,0.833,0.707,0.971,1,
37.822232608846207,5.7033820286278569,-14.736582483010352,1,1,1,1,
37.843488881605936,6.0884836494778938,-15.373542966017339,0.494,0.518,0.525,1,
136.40516412241732,5.2254883803093399,-15.10755656211893,0.978,0.972,0.957,1,
137.29239829967986,5.3714317254360822,-15.449953284729645,0.966,0.976,0.935,1,
138.4535452946306,5.2745537184450964,-15.355769897514026,0.786,0.812,0.75,1,
139.80425515253859,5.6235282119132535,-15.355132264208427,0.987,0.985,0.956,1,
-60.843349273174141,6.9696992029832927,-15.780174722408447,0.884,0.867,0.967,1,
35.071444564910848,7.0832072230664345,-15.53966605145729,0.821,0.862,0.865,1,
36.07881563642723,6.6508905033896282,-15.183605098324227,0.759,0.766,0.745,1,
37.522024075722356,6.6432929911830474,-15.185405476883517,0.84,0.85,0.829,1,
38.369568428556214,7.041462077381766,-15.455471093446526,0.831,0.816,0.78,1,
137.92518151220179,6.2022898868008269,-15.655601524713347,1,0.992,0.992,1,
138.53405213254177,6.4293142018340133,-15.282455608863765,0.987,0.978,0.962,1,
34.875921791951981,7.9993125418248434,-15.381974921524488,0.779,0.809,0.8,1,
35.822715248006176,7.9492679451220738,-15.266765139756444,0.819,0.848,0.851,1,
37.326569688556077,8.0229965662681479,-15.054374913366363,0.775,0.783,0.783,1,
38.918897462494328,7.5624290542464223,-15.688773006559131,0.82,0.882,0.769,1,
34.940040137887983,8.7777148025985916,-15.200530217579223,0.926,0.923,0.927,1,
36.601112448018114,9.0047915739432938,-14.98185519665185,0.747,0.773,0.722,1,
37.014301334650781,9.1765095075968528,-15.241109925000496,0.892,0.88,0.87,1,
38.596752520969055,9.0567413171049882,-15.543737012725378,0.593,0.627,0.588,1,
35.844254318604385,10.020379952493386,-15.331229410548985,1,1,1,1,
37.786885821518013,10.048359832239839,-15.409140645488151,0.875,0.886,0.914,1,
140.85577396890869,10.795918068140509,-15.438467580679571,0.924,0.943,0.925,1,
138.85666448580025,11.937310485223286,-15.037853066814932,0.997,0.991,0.991,1,
139.80329241597312,11.622882146495872,-15.319012769871021,0.899,0.908,0.938,1,
138.75053503692669,12.660131620663151,-15.284429964737001,0.953,0.948,0.968,1,
140.1111872812144,12.808878037920412,-15.305637057407285,0.941,0.926,0.962,1,
141.50645528403061,13.173404200870209,-15.160886096433901,0.834,0.861,0.888,1,
140.01900732201477,13.684118348275543,-14.955277745229978,0.999,0.999,0.995,1,
39.731738521406321,16.789351429432607,-15.326754648489205,0.968,0.969,0.982,1,
141.4147785299491,17.040410191384581,-15.16238057092778,1,1,0.996,1,
39.648267831632886,17.652071780768775,-15.465560303577208,0.825,0.827,0.819,1,
139.98034147988449,17.634983039063744,-15.267291614312617,0.994,0.99,0.997,1,
141.29735430465473,17.31644859376047,-15.14686271661958,1,0.996,1,1,
40.120710997086917,18.499821121906734,-15.581679310514573,0.992,0.996,0.994,1,
140.07692539834693,18.75752048287438,-15.424641597216461,1,1,1,1,
140.76481080280701,18.815300407339919,-15.540838983838512,0.988,0.984,0.992,1,
141.30797284240771,19.787624998457432,-15.33807016130595,1,0.999,0.996,1,
43.36946024386279,26.348900325103841,-15.226752917101294,0.958,0.975,0.956,1,
42.07646058276282,27.058999759788094,-15.73833599536556,0.702,0.737,0.725,1,
125.61877253170928,26.911419254474488,-15.444956773080776,1,1,0.995,1,
94.558848192918262,32.068686002276195,-15.280266743275261,0.828,0.842,0.725,1,
108.20999082255811,32.835061317215143,-15.28053935724194,0.91,0.915,0.771,1,
109.35134566954552,32.546836885397056,-15.333901022997198,0.906,0.913,0.758,1,
110.24303195772688,32.325032936328938,-15.240811040434233,0.809,0.842,0.699,1,
103.3755679695636,34.072621507191812,-15.297590559032736,0.905,0.913,0.789,1,
104.35376795466856,33.822583827009531,-15.233635969810477,0.979,0.978,0.863,1,
105.55782550251358,33.52035333808567,-15.279210195943971,0.916,0.921,0.805,1,
106.77195787139659,33.212435307714557,-15.304063259075351,0.871,0.885,0.746,1,
107.62290594723834,32.987581715872018,-15.397452209413299,0.874,0.887,0.749,1,
43.694926957655866,35.186443186440705,-15.297314850580557,0.817,0.828,0.801,1,
44.422252899494197,34.772707611750995,-15.460692122132858,0.543,0.593,0.504,1,
45.705459832490192,34.819907254757254,-15.034346114930486,0.38,0.433,0.294,1,
98.510149135211392,35.306657798239158,-15.32234205623595,0.908,0.913,0.769,1,
99.487068074165521,35.057751211411414,-15.270537659600459,0.801,0.845,0.692,1,
100.77368809145393,34.741606170451412,-15.172170152677189,0.901,0.915,0.791,1,
101.96593347415683,34.441938012547133,-15.193880806157466,0.9,0.915,0.802,1,
102.78713177221732,34.227269025258188,-15.210736479940312,0.939,0.944,0.825,1,
43.549142544542782,36.284489770780915,-15.209193876769278,0.557,0.597,0.503,1,
44.436484490247842,36.065547219891194,-15.301050007110462,0.554,0.552,0.54,1,
45.683155812632492,36.312056988663244,-15.236501290587512,0.629,0.649,0.584,1,
93.683401918436275,36.542255334751637,-15.455471191501147,0.806,0.835,0.7,1,
94.687121574256736,36.286673347652453,-15.307008726943018,0.944,0.959,0.822,1,
95.78149080339216,35.938547930512435,-15.324133091571547,0.904,0.904,0.669,1,
97.005317773060099,35.662892109034061,-15.238809036155487,0.917,0.9,0.716,1,
97.896350340462291,35.465378588400156,-15.371029775792522,0.867,0.894,0.734,1,
43.45360698856382,37.003140278102364,-15.787263210995661,0.349,0.4,0.306,1,
44.311118621109813,37.191662028703831,-15.696207198061529,1,0.969,0.922,1,
88.885808307322407,37.77708796008028,-15.32121849412038,0.856,0.889,0.733,1,
89.877607257526918,37.525665784663431,-15.429005352771696,0.897,0.914,0.776,1,
90.921645031718512,37.266160640219702,-15.302930362307565,0.872,0.894,0.76,1,
92.151411476963929,36.946273208652848,-15.281580381059923,0.945,0.948,0.822,1,
93.105245424527368,36.691994512061399,-15.34694257699698,0.848,0.866,0.72,1,
83.992088107436302,39.003452138004491,-15.385636151563631,0.8,0.81,0.649,1,
84.799577814335109,38.802931972688469,-15.324704556425871,0.819,0.841,0.681,1,
86.006814957341746,38.508522309645407,-15.357845561228544,0.871,0.881,0.729,1,
87.219134980465739,38.209109682649789,-15.236928138417372,0.811,0.83,0.694,1,
88.230801914755958,37.946016610044268,-15.265702097212452,0.873,0.898,0.747,1,
79.219171583432285,40.22775996804728,-15.506246259292533,0.901,0.886,0.751,1,
80.171123795835797,39.980813966248306,-15.26334196293111,0.713,0.744,0.583,1,
81.035065877211878,39.731584317015958,-15.304070464273178,0.759,0.769,0.571,1,
82.432854104625974,39.348790616742235,-15.369652603069994,0.77,0.768,0.562,1,
83.370032861303514,39.16100287776225,-15.338708775175236,0.763,0.777,0.619,1,
39.726192543785288,41.314223016684082,-15.3555514521031,0.538,0.583,0.521,1,
74.376270091264246,41.475867827216462,-15.317518659685447,0.681,0.743,0.543,1,
75.011411790469325,41.314690996021582,-15.25765146613206,0.717,0.737,0.612,1,
76.452579389645337,40.955160631928614,-15.192250005119091,0.698,0.717,0.602,1,
77.548774561972394,40.668647651753709,-15.332449376299074,0.734,0.741,0.618,1,
78.621279863415054,40.384217963441714,-15.376683613983754,0.731,0.744,0.62,1,
38.242410676945781,42.115097443023444,-15.24038465669758,0.305,0.342,0.299,1,
39.362363407029477,41.85032441668568,-15.347139701589185,0.652,0.675,0.633,1,
40.989672342846006,42.526398236346076,-15.359011874186979,0.543,0.575,0.541,1,
70.186743208263678,42.54720599947526,-15.257468332135481,0.78,0.82,0.652,1,
71.419312429228384,42.240446906990911,-15.322953157692055,0.671,0.694,0.544,1,
72.627301914236497,41.928756401361511,-15.126887215899387,0.667,0.729,0.572,1,
73.745170081765949,41.638926190980527,-15.416268045425618,0.701,0.756,0.573,1,
37.216148909367533,43.456667292056665,-15.120666036848307,0.413,0.435,0.352,1,
38.186620605576429,42.888723573355492,-15.198654136838741,0.522,0.544,0.388,1,
40.863936668490418,42.935615759295828,-15.445848627409219,0.439,0.481,0.411,1,
41.636054116835908,43.050401159992482,-15.525327109647268,0.863,0.905,0.888,1,
66.847397501916817,43.548539892697136,-15.318911996473616,0.308,0.386,0.269,1,
67.857682131051703,43.14069631591699,-15.173981063059117,0.623,0.653,0.503,1,
68.879036538438967,42.878435577785034,-15.351681693597241,0.718,0.766,0.587,1,
26.474556951048832,45.072846894365085,-15.45842286605259,0.899,0.885,0.802,1,
27.401276900932416,44.858345915251839,-15.278229546424882,0.788,0.785,0.721,1,
28.454852706687461,44.956031267133767,-15.320509978664631,0.884,0.914,0.802,1,
37.369388560666295,44.338843394390317,-15.350016826971569,0.868,0.875,0.705,1,
38.796742211409388,44.1741801872042,-15.453389220608237,0.365,0.402,0.327,1,
21.652963249294,46.298989356798884,-15.408237401054736,0.879,0.876,0.82,1,
22.525391583707588,46.105694274777839,-15.325381537713568,0.826,0.837,0.79,1,
23.798034631124509,45.789067069978429,-15.250487274013903,0.863,0.855,0.773,1,
25.02339902177242,45.459158323047369,-15.392083071659734,0.815,0.823,0.75,1,
26.029068847496784,45.264136603446744,-15.274816055702855,0.77,0.786,0.699,1,
27.618453958808686,45.245526815165249,-14.806238357323309,0.918,0.902,0.796,1,
28.66414884163504,45.941790758661227,-15.438438794793397,0.644,0.708,0.567,1,
38.670282279487658,45.924826205805402,-14.824108558665895,0.99,0.97,0.814,1,
39.448403956185984,46.081734934091401,-15.709677433051183,0.894,0.902,0.698,1,
40.418032144984295,45.934786008956507,-14.791047429980608,0.722,0.788,0.655,1,
41.621290198960992,45.91529675167294,-14.668548013787586,0.796,0.812,0.776,1,
16.775269810194171,47.543022364956997,-15.462087944123903,0.88,0.904,0.822,1,
17.655688352899436,47.337011328019706,-15.397974003049097,0.77,0.789,0.737,1,
18.917619345876769,47.028023827537794,-15.370040168991295,0.839,0.85,0.797,1,
20.155360776081821,46.711651142506419,-15.310554499004535,0.858,0.855,0.798,1,
21.15725417363268,46.477366144896948,-15.265660858398144,0.793,0.805,0.765,1,
22.396005140379316,46.387926673219226,-14.936657133830522,0.965,0.961,0.867,1,
23.959076152877401,46.858444972031066,-15.803795748752236,0.539,0.665,0.571,1,
25.972360721233656,46.72946494650887,-15.802517170868668,0.516,0.641,0.52,1,
27.512838066954259,47.055704844561895,-15.801966378603538,0.477,0.583,0.469,1,
29.078851270677998,47.084541163447405,-15.271227177890978,0.702,0.767,0.541,1,
-31.700891224275551,48.667162794799879,-15.44613352621127,0.463,0.561,0.486,1,
-29.992340762206027,48.291335170347338,-15.577039092325439,0.383,0.494,0.391,1,
-29.159731749182072,48.19722127635373,-15.64929035367868,0.351,0.482,0.38,1,
11.951390781835268,48.776189885586518,-15.34663961860694,0.813,0.839,0.733,1,
12.760490458198493,48.589620605065662,-15.322314571838969,0.721,0.77,0.672,1,
13.983550326300831,48.308483550012497,-15.318384203559521,0.682,0.726,0.623,1,
15.344644944357832,47.949112719270495,-15.287646780031693,0.83,0.855,0.751,1,
16.306520576271353,47.837415625485711,-15.360397059680508,0.792,0.822,0.729,1,
17.202743439625468,48.019709255527346,-15.234745949328499,0.536,0.631,0.54,1,
19.139332490331064,48.337940892035355,-15.808433726836601,0.371,0.472,0.412,1,
20.244749557498665,48.059794120689503,-15.260520365245611,0.612,0.65,0.585,1,
21.133520247857973,47.813892846079732,-15.796578783238147,0.591,0.684,0.618,1,
22.652463576859351,48.143986713853337,-15.799206195197534,0.556,0.657,0.576,1,
28.85962271265474,48.167046446029318,-15.406364143310814,0.506,0.611,0.478,1,
29.361159054559494,48.204634897501819,-15.598839830772704,0.494,0.561,0.396,1,
-28.925965362837925,49.269138553313383,-15.61958230377053,0.385,0.504,0.419,1,
7.0938181414748058,50.012674188764095,-15.411865627541488,0.853,0.82,0.774,1,
7.8187382121097659,49.840981089039339,-15.35370591253027,0.879,0.854,0.782,1,
9.0434324792204599,49.577634594814015,-15.246518969556643,0.766,0.777,0.699,1,
10.375363789843494,49.264051172229209,-15.278343249134352,0.778,0.805,0.72,1,
11.38965885579546,48.966433080283586,-15.309930280882622,0.724,0.751,0.65,1,
12.784806742203724,49.201994782720469,-14.997531405697151,0.623,0.688,0.573,1,
14.152764610274037,49.42395242324038,-15.257506170580083,0.528,0.604,0.499,1,
16.293274015140579,49.484211180242376,-15.820757385654193,0.51,0.608,0.502,1,
17.760894686580929,49.116653148075784,-15.804372615743079,0.469,0.559,0.487,1,
18.749141022660343,49.067303452365316,-15.806316939584731,0.489,0.583,0.508,1,
20.017578386656854,49.40473264502976,-15.80237374264437,0.389,0.461,0.429,1,
20.972193999568844,49.148188986691821,-15.796541001691367,0.565,0.663,0.592,1,
22.15734319896967,49.192780549844883,-15.797334844478428,0.543,0.62,0.559,1,
23.86626897322941,49.313133448833923,-15.806858930886847,0.516,0.633,0.539,1,
29.532294183951535,48.884989327007133,-15.566291805271248,0.455,0.537,0.408,1,
40.024119312699888,49.167022546801611,-15.561130080641306,0.469,0.542,0.373,1,
40.508970789545629,49.737140699335214,-15.842827557435157,0.361,0.396,0.271,1,
42.866321855008493,49.532350516017232,-14.976503842376587,0.631,0.651,0.553,1,
154.98235424873997,49.182748459581369,-15.272279292351531,1,1,0.997,1,
-28.670098934758247,50.457241363801586,-15.634678140562242,0.271,0.392,0.31,1,
2.3184701040435129,51.224288507683013,-15.287977363414029,0.8,0.824,0.776,1,
3.2012557303151556,51.023594531430795,-15.239027761077551,0.854,0.842,0.773,1,
4.2229633432744329,50.835704038991736,-15.135154739382983,0.682,0.686,0.643,1,
5.4511063532014514,50.475412882493572,-15.356347544234483,0.755,0.757,0.706,1,
6.5327676200027662,50.284290325009472,-15.200335006557431,0.697,0.71,0.665,1,
7.5806082370155625,50.417351721042117,-15.097385350297255,0.332,0.352,0.306,1,
9.4506893766777011,51.041554216340046,-15.800085462842617,0.357,0.4,0.337,1,
11.451666400835725,50.745391265915593,-15.795254715840201,0.43,0.48,0.395,1,
12.274643989726997,50.149294395964716,-15.795140176351197,0.298,0.345,0.275,1,
13.860073735496027,50.601840841106302,-15.793734351443046,0.556,0.648,0.531,1,
15.119425198353298,50.770108439621708,-15.792475447824472,0.537,0.63,0.509,1,
16.702211235664066,50.423703062421055,-15.812825396039898,0.552,0.649,0.559,1,
17.670953914166176,50.310089496008459,-15.797060853515177,0.575,0.665,0.605,1,
18.960866942781539,50.318895933842981,-15.806614197168278,0.478,0.56,0.484,1,
20.546343826268188,50.785336102421866,-15.808505464292576,0.358,0.456,0.353,1,
21.170307470246286,50.463847104254,-15.8085074497194,0.548,0.636,0.572,1,
29.881609731319259,50.256743518843905,-15.209741102353291,0.867,0.925,0.757,1,
38.786333789791463,50.80823408093238,-15.498239658124358,0.629,0.627,0.519,1,
39.436033992623074,50.783575695488302,-15.222552251868693,0.616,0.638,0.532,1,
40.66392791209239,50.555818909401864,-15.25532738878621,0.355,0.362,0.308,1,
42.222750144702559,50.326876123563125,-15.205509283759966,0.918,0.922,0.8,1,
43.026176510423397,50.278250618589482,-15.365306765602327,0.749,0.725,0.594,1,
-2.5837645817716748,52.481447878278686,-15.450904197109594,0.825,0.837,0.721,1,
-1.8306305925858135,52.301948224350859,-15.414967213707998,0.835,0.835,0.743,1,
-0.64380306191519354,52.014202105956642,-15.315588564619731,0.817,0.823,0.731,1,
0.58682553364330925,51.754593829121397,-15.218558316433818,0.813,0.819,0.739,1,
1.6770567461504848,51.516186120946216,-15.308227836813016,0.696,0.72,0.651,1,
2.7707227939255397,51.759461673100418,-15.240762486201099,0.515,0.587,0.528,1,
3.8363003829289255,51.832198199406321,-14.698396515768763,0.329,0.349,0.384,1,
5.6586353976795234,52.079342619663073,-15.802571400399811,0.395,0.433,0.365,1,
7.1249988126709241,51.655404971029384,-15.77873539531538,0.459,0.529,0.443,1,
7.8907120035864864,52.369054305358986,-15.795526120427894,0.365,0.424,0.341,1,
8.9015792447355579,51.873915779765412,-15.790140399758457,0.525,0.576,0.482,1,
10.466419882391165,51.740175040322356,-15.798441683045894,0.345,0.396,0.31,1,
12.083578790580418,51.867485091747767,-15.792841570601013,0.259,0.29,0.22,1,
14.026486906608682,51.796228333955696,-15.793085494237857,0.478,0.561,0.453,1,
15.634659135841389,52.152416794797318,-15.790575104119853,0.547,0.629,0.533,1,
16.4013021817766,51.70116658518964,-15.790721527840779,0.508,0.596,0.499,1,
17.856436881444893,51.635146606514581,-15.799807220275852,0.568,0.659,0.597,1,
18.824286425722647,51.689932416394413,-15.803335435577992,0.58,0.673,0.61,1,
19.92551913744478,51.4127084733218,-15.811229525297676,0.361,0.455,0.341,1,
21.126236202586025,52.052777782402025,-15.830255584508567,0.312,0.397,0.298,1,
29.671901460943673,52.136290093187654,-15.803494729880185,0.424,0.508,0.402,1,
-7.3805605193227874,53.703069734524213,-15.500815617542907,0.901,0.907,0.804,1,
-6.6603959758373961,53.535087552203379,-15.373112710073411,0.813,0.834,0.737,1,
-5.5224340190562771,53.266356622223007,-15.289641284385592,0.776,0.792,0.692,1,
-4.3098678453992729,52.964433694240313,-15.25815527594232,0.78,0.799,0.699,1,
-3.1788973389865194,52.682712393773976,-15.28085786936667,0.78,0.793,0.717,1,
-1.9396365301529994,52.782131595052185,-15.049421477101587,0.591,0.614,0.515,1,
1.4755230291996213,52.928174708597453,-15.812739544571741,0.361,0.422,0.397,1,
3.1588842322588517,53.09062385379093,-15.810023671747331,0.332,0.384,0.311,1,
6.561583915285496,53.35522711646945,-15.799107801512946,0.431,0.447,0.345,1,
8.3637879328790632,52.964266386652525,-15.853936644134592,0.396,0.42,0.318,1,
10.832923146466555,52.913722841481103,-15.796018931268918,0.388,0.439,0.376,1,
12.946458247569126,52.838029626514071,-15.789110235573389,0.4,0.467,0.376,1,
13.873386879150186,52.949378309108397,-15.785456788535157,0.54,0.626,0.524,1,
16.729796096441873,52.921754634098761,-15.784007717911663,0.565,0.647,0.525,1,
17.585673193494245,52.996743175033892,-15.817743322562027,0.559,0.647,0.579,1,
18.424454555443504,53.388835232794918,-15.77834027557401,0.578,0.673,0.596,1,
-11.590020813460333,54.78199741743461,-15.360792966261084,0.914,0.906,0.824,1,
-10.367177072059807,54.52150649912668,-15.274658714729828,0.82,0.813,0.725,1,
-9.1664932042909157,54.208685912184862,-15.289720396054197,0.833,0.83,0.742,1,
-8.036159279739552,53.921268377256084,-15.317176125959342,0.849,0.857,0.764,1,
-6.8759940474788506,53.857538685377904,-14.808727033065461,0.504,0.542,0.452,1,
-5.3114816926846942,54.338208489852491,-15.402263345123401,0.375,0.432,0.357,1,
-4.0790929513434548,54.3379072200878,-15.83122454178465,0.39,0.455,0.402,1,
-1.9572595269440329,54.295262900913023,-15.806068528831929,0.371,0.422,0.405,1,
-0.5933825126192005,54.223430965597565,-15.813480141939063,0.362,0.412,0.325,1,
0.13036542011235497,54.285943147647231,-15.838353815524897,0.394,0.49,0.404,1,
1.9942683258733496,54.040460308613092,-15.81463119994908,0.4,0.453,0.414,1,
3.032658672263433,54.360037748892864,-15.812330334483704,0.399,0.425,0.382,1,
3.7951249066026094,53.922917051636432,-15.80265333927855,0.306,0.325,0.208,1,
11.735561230352687,53.856080371588178,-15.792645424426155,0.425,0.488,0.392,1,
12.529023782335003,54.511985713645572,-15.778634519847401,0.573,0.62,0.553,1,
13.698998146391972,54.277714936858956,-15.79887267439517,0.383,0.437,0.364,1,
30.844080075453917,54.063977279383835,-15.495181847882122,0.608,0.667,0.608,1,
-12.662412415289648,55.181515619312506,-15.258779881824891,0.791,0.821,0.759,1,
-11.738794330042879,55.095901482705713,-14.783646898227365,0.514,0.534,0.447,1,
-10.597441724122525,55.794665850612546,-15.634440141714945,0.419,0.484,0.409,1,
-8.1162128073736248,55.728452916160578,-15.797647213763033,0.39,0.428,0.368,1,
-6.2309285242179158,55.120516153692733,-15.796503498677339,0.318,0.357,0.302,1,
-5.4830724684062915,55.697002267365292,-15.799312974422719,0.355,0.412,0.332,1,
-1.6154583042649051,55.498040329382547,-15.805367965811001,0.389,0.469,0.417,1,
-0.80328701325016461,55.644781193488477,-15.804879075176359,0.31,0.333,0.282,1,
0.42159046916623311,55.96241872410701,-15.819974318560526,0.404,0.48,0.382,1,
2.0188396690912214,55.020988756950828,-15.813083419971008,0.424,0.465,0.4,1,
2.9442307236848819,55.791286041539934,-15.811825395076195,0.362,0.405,0.368,1,
4.1585042728797816,55.003004655418408,-15.808823799261518,0.38,0.42,0.325,1,
7.9624666015121193,55.556917679098206,-15.809356224281146,0.428,0.484,0.433,1,
22.080690628385469,54.960844528864072,-15.788135232241984,0.502,0.584,0.416,1,
-12.744799791448713,56.597516917122334,-15.507773322269713,0.708,0.762,0.74,1,
-11.433885497599272,56.760142935868842,-15.799836110711174,0.404,0.461,0.391,1,
-10.545477346433074,56.981335206671702,-15.799397291402784,0.406,0.464,0.388,1,
-8.7279908847470722,57.022321911404106,-15.802342431641136,0.389,0.451,0.383,1,
-8.0928740307534284,57.011055758623975,-15.803851803184443,0.399,0.45,0.388,1,
-6.1907079312106816,56.745281419239291,-15.798948750216368,0.375,0.437,0.369,1,
-5.617111893852778,57.024101884906031,-15.800773860519534,0.391,0.452,0.372,1,
-4.6983158705415917,56.576303717292831,-15.801343951125091,0.365,0.435,0.337,1,
-1.548091960188458,56.706969650406336,-15.798031598706075,0.388,0.457,0.392,1,
-0.97938955661902583,56.934505052481654,-15.799883995555319,0.333,0.396,0.363,1,
0.48949268087739028,56.529222177914562,-15.826580836346693,0.424,0.486,0.412,1,
3.4865138056972,56.862292059349784,-15.809816721912284,0.416,0.463,0.459,1,
4.4583980333001705,56.803763190487189,-15.823496323150721,0.455,0.523,0.462,1,
43.092001257036827,56.655510383620822,-15.711521224375247,0.643,0.639,0.529,1,
117.62286453915749,56.900742330014964,-15.538425163299507,0.994,0.992,0.967,1,
-12.310649293401642,58.29264051139149,-15.478884890285372,0.67,0.739,0.696,1,
-11.572152640155764,58.406004031041903,-15.800723735424071,0.337,0.355,0.335,1,
-10.716531879376712,58.104780018955474,-15.799752638183119,0.431,0.46,0.395,1,
-8.9138531247456854,57.918550853344186,-15.803107523879589,0.375,0.453,0.369,1,
-7.8972259301224312,58.032417866158426,-15.804639962198053,0.443,0.498,0.433,1,
-5.3977106223701554,58.075364683887187,-15.803017503372985,0.41,0.463,0.383,1,
-4.7730731472483967,57.78607675154035,-15.802430865505812,0.255,0.278,0.231,1,
-3.4844729074912095,58.150719585228217,-15.816556105789914,0.414,0.492,0.39,1,
-0.52433517531369489,58.063292867132077,-15.791201626598195,0.306,0.355,0.284,1,
-9.0136401162865809,59.683922160616021,-15.798657939285476,0.447,0.504,0.427,1,
-7.8246976167611892,59.173597751883136,-15.80188990439102,0.444,0.489,0.416,1,
-7.2736196119649321,58.913609344131146,-15.804819551021865,0.392,0.463,0.404,1,
-5.5251324696214965,59.257429671220052,-15.800991744754356,0.491,0.535,0.451,1,
-3.2241995651993705,59.362512836997894,-15.807973144603693,0.417,0.474,0.396,1,
118.17292543905012,58.812428871041213,-15.515268173278972,0.795,0.818,0.66,1,
-11.839215891242816,60.126068142096756,-15.450421206537612,0.702,0.776,0.709,1,
-9.1904274117615703,60.567509592412414,-15.801312552715107,0.431,0.488,0.399,1,
-6.5699363982457681,60.944877454100485,-15.804695565293514,0.401,0.454,0.382,1,
-5.2592393375050506,60.402924624819441,-15.799498523089706,0.485,0.512,0.43,1,
-2.8959010681478548,60.556336949654231,-15.803229147195452,0.357,0.39,0.301,1,
118.74457340437516,60.804033003213355,-15.40936613499383,0.987,0.99,0.865,1,
-11.362010531001943,61.989603484448594,-15.434486701224049,0.709,0.785,0.734,1,
-10.029804688850842,61.11460365957555,-15.802616351265897,0.48,0.549,0.441,1,
-9.270510178325253,62.040032511656015,-15.803619487542164,0.342,0.371,0.282,1,
44.461604266317067,61.545465479184713,-15.143958974022098,0.4,0.443,0.337,1,
-6.2473731056655879,63.361966828665572,-15.79871015678691,0.431,0.482,0.412,1,
-5.4691192184286308,63.102418513807379,-15.799605123447691,0.363,0.418,0.339,1,
-2.9498232512636946,63.268586529261484,-15.800125867144743,0.406,0.455,0.38,1,
-2.4267830175972449,63.011279702891443,-15.800534084746687,0.302,0.345,0.259,1,
-10.820099224311264,64.103327679134736,-15.478036428930864,0.679,0.76,0.697,1,
-7.8468295712141867,63.980999759110091,-15.801995607489516,0.524,0.571,0.502,1,
-6.6248187287598626,63.51716061061552,-15.798147583154787,0.467,0.514,0.437,1,
119.47165139737592,63.670932242416711,-15.13562402919888,1,1,0.953,1,
-7.7876873635318589,64.939432696888844,-15.849451743008558,0.484,0.546,0.448,1,
33.758898369953272,65.678753025792957,-15.17654474127994,0.708,0.751,0.633,1,
119.64928728325219,64.756824507981037,-15.560890300321262,0.878,0.933,0.835,1,
-10.276171550085422,66.246566633481052,-15.414648458431657,0.641,0.73,0.635,1,
33.991483781505849,66.319397602114805,-15.463668621009674,0.648,0.705,0.58,1,
-9.6745690035504595,68.596976761199357,-15.516141144189532,0.588,0.666,0.592,1,
-8.9640301593010836,71.235262568782872,-15.447903997483081,0.514,0.592,0.505,1,
73.958948111254585,71.484964285445926,-15.43620828124398,0.339,0.375,0.244,1,
74.192401372101813,72.38938981231513,-15.76840199390972,0.255,0.275,0.161,1,
-8.3558535610467324,73.770542550543055,-15.517464259649783,0.631,0.739,0.655,1,
-7.6076427394866641,76.701180688966147,-15.534311269599922,0.621,0.729,0.641,1,
75.253678393139012,76.575274016477124,-15.867220344034649,0.424,0.459,0.314,1,
36.931793150358772,77.815736780166844,-15.706317982449036,0.741,0.784,0.643,1,
37.094425472498635,78.443017759657891,-15.564526288092962,0.856,0.873,0.75,1,
-6.7932493198979982,79.88497624410229,-15.345964681046098,0.564,0.681,0.588,1,
37.414435210223473,79.705848861522099,-15.615221157077031,0.878,0.933,0.835,1,
-5.8820122883107562,83.429117501509495,-15.346573809438269,0.536,0.644,0.551,1,
-135.81467768855049,86.609362085994235,-15.120082543376157,0.81,0.808,0.675,1,
-134.71459388135543,86.154018328556958,-15.033151581747006,0.906,0.922,0.788,1,
-134.00870308655499,86.150314320245229,-14.961680368514862,0.839,0.871,0.816,1,
-139.8497086194439,87.636140032714138,-14.846286619558668,0.982,0.978,0.882,1,
-138.44177459758356,87.183530690045359,-15.349127590411349,0.924,0.933,0.831,1,
-137.35937402262977,86.977962919831953,-15.35801558361527,0.927,0.943,0.814,1,
-4.9594816299486366,87.074036708827407,-15.602070333216034,0.43,0.486,0.386,1,
-142.91295966049944,88.242924742019113,-15.355885270764702,0.953,0.941,0.796,1,
-142.3604462635808,88.260466827136952,-15.385997181738276,0.961,0.976,0.867,1,
-141.49360823239476,88.034435214581208,-15.436733301044114,0.937,0.945,0.818,1,
-3.8942790913409908,91.237249002537041,-15.620393193482297,0.506,0.563,0.459,1,
-37.682771015532524,92.143893520244546,-15.599733501403534,0.635,0.704,0.58,1,
-44.355991946929407,93.647521870821038,-15.431982261588928,0.373,0.463,0.329,1,
-43.450058331799823,93.415845566179883,-15.589180646884415,0.732,0.803,0.692,1,
-42.327980217216066,93.129686779320764,-15.535681918095179,0.922,0.943,0.878,1,
-37.258192188076578,93.681964574443555,-15.67863844115891,0.831,0.882,0.773,1,
-37.025069737079974,94.592690737584917,-15.469034802890747,0.735,0.793,0.688,1,
-36.786682745031385,95.511956136817844,-15.419922382875484,0.749,0.79,0.686,1,
-2.7724092215208884,95.658364980408805,-15.545891793635747,0.586,0.627,0.518,1,
-36.506893128324116,96.599380329204237,-15.745937679790822,0.817,0.872,0.748,1,
-36.056489114848489,98.33313762896978,-15.598144161685923,0.639,0.72,0.608,1,
192.32842134748296,101.2369430588933,-15.684447749890751,1,0.988,1,1,
188.96125749975567,102.09871699316864,-15.70423804651,1,0.988,0.996,1,
191.47761567424482,101.44554088981295,-15.662673519045711,1,0.996,0.992,1,
182.74085768020143,103.66162690900182,-15.800899369651233,0.996,1,0.992,1,
169.42669863674098,134.65490367138955,-15.520171206162559,0.878,0.875,0.722,1,
11.868193375680347,148.82814110706079,-15.336921916286883,0.392,0.453,0.342,1,
12.712780490485853,148.42671202803638,-15.321597939998155,0.699,0.739,0.569,1,
5.2713990375252706,149.97779731487526,-15.122133099794155,0.692,0.771,0.578,1,
7.02444612378339,150.05352070626753,-15.355277358334863,0.654,0.697,0.533,1,
7.9376863058144842,149.82279891946504,-15.326961625161118,0.646,0.696,0.528,1,
9.076495920297134,149.53284412172252,-15.329111530869854,0.503,0.557,0.412,1,
10.368227250314167,149.20957317895778,-15.23570831027804,0.536,0.601,0.443,1,
11.290090899673256,148.97340730612996,-15.448519166814666,0.446,0.505,0.365,1,
3.151555806691908,151.04696911743542,-15.322242380142182,0.573,0.657,0.493,1,
4.2573533547729525,150.76416877320753,-15.316052504204258,0.525,0.616,0.461,1,
5.3421432226485877,150.48460602510471,-15.351243764111233,0.511,0.569,0.427,1,
6.341664414293291,150.22864892703825,-15.356845771553051,0.666,0.7,0.544,1,
9.2358191911046106,156.07166779489035,-15.862002481981108,0.31,0.384,0.306,1,
10.380653242734184,155.7447338439033,-15.86545523764471,0.2,0.173,0.149,1,
12.144432700864627,156.15578233848737,-15.817186406366091,0.137,0.157,0.133,1,
81.276652020356721,159.66287204520313,-15.601431198035698,0.487,0.576,0.441,1,
82.214379325051823,159.37904573850858,-15.676488245238151,0.515,0.603,0.452,1,
83.410608761198546,159.02974759910649,-14.890182346789516,0.49,0.584,0.459,1,
80.282114938796667,160.00943120729971,-14.890707808490333,0.31,0.373,0.259,1,
182.52263190255746,201.06789159171967,-15.418800827546875,0.998,1,0.992,1,
183.89857941713217,200.21377284876962,-15.431039366831101,1,1,0.992,1,
180.03378042955376,202.61237346971939,-15.396350148648708,0.996,0.996,1,1,
181.51156551856673,201.69309246379441,-15.197224790123309,0.997,0.999,0.992,1,
178.92353645535763,203.29400412038012,-15.380868682086657,1,1,0.984,1,
179.47951050686584,202.94808420430854,-15.388158241194105,1,1,0.984,1,
177.24788462111007,204.31930739732707,-15.36554378276378,0.933,0.922,0.859,1,
172.19119195644339,207.43634356847451,-15.30882925521837,1,0.992,0.992,1,
169.08381692054775,208.18594294496506,-14.989313729074638,0.965,0.967,0.986,1,
171.6285740754131,207.80006912048066,-15.302554971867721,0.769,0.808,0.776,1,
156.60542373005626,217.06743659478889,-15.102615167279509,0.996,0.996,1,1,
156.01370868122189,217.42896237611831,-15.420367021761194,1,0.996,0.996,1,
0.13885491991771914,-122.8753281156969,-14.299648021278699,0.704,0.741,0.725,1,
89.847262843818498,-111.22916297097163,-13.432533676223102,1,0.996,0.984,1,
81.21050284344733,-110.53130773632347,-14.578336930526348,1,1,1,1,
84.4201230889513,-110.61072533702033,-13.982180238751029,0.844,0.847,0.888,1,
86.886545421762662,-110.94233161315969,-14.093785480895349,0.881,0.913,0.852,1,
89.944407011444127,-110.68560902117497,-14.267073573819289,1,0.988,0.988,1,
83.69065047914404,-108.79159134987049,-14.336028826467951,0.999,0.997,0.998,1,
84.888267547264533,-108.79583713631291,-14.216652289828213,0.81,0.814,0.858,1,
87.701017692722871,-109.77002104596068,-14.236754049079536,0.996,0.978,0.992,1,
83.82134085032078,-108.07806555817479,-14.154642555013197,1,1,1,1,
85.169399853057826,-108.63028887304948,-13.974657102077682,0.681,0.689,0.799,1,
85.53336295904046,-105.73817044075895,-14.456401969482613,0.871,0.859,0.925,1,
-9.4491020711018336,-103.60048504992392,-13.607398386739078,0.667,0.749,0.608,1,
-8.1427236041520246,-100.29346648025239,-14.039309669442446,0.339,0.401,0.337,1,
-6.4888369750093489,-100.26074924439854,-14.112072257148611,0.165,0.224,0.196,1,
78.201389146244082,-100.27072978914475,-13.708870632171966,1,1,1,1,
-6.6977563272752061,-99.783926931043538,-13.857317003385106,0.175,0.227,0.192,1,
-4.0882629036503859,-99.146816846143736,-13.944967649763274,0.251,0.298,0.231,1,
-3.5895275316555342,-99.531422087579813,-14.092780795635917,0.258,0.321,0.314,1,
-5.0321312568613052,-98.194053618954058,-13.841770264662046,0.29,0.347,0.284,1,
-4.3950267471437598,-98.605491499341724,-14.002820650773629,0.172,0.227,0.192,1,
130.75302357862029,-98.811252495920598,-13.88422304330561,0.984,0.976,0.957,1,
123.31786161652758,-97.200172078260039,-14.577333445231488,0.969,0.976,0.949,1,
127.00552818600386,-97.574109150855293,-14.461035390240795,0.894,0.906,0.965,1,
-13.289104247427019,-95.338343451771834,-14.002230212781797,0.845,0.837,0.812,1,
-9.908275940986865,-95.585816274251783,-14.179430186914143,0.613,0.689,0.667,1,
-9.0628218380250924,-95.689348476949434,-14.249289289203215,0.387,0.471,0.401,1,
-14.008171987806573,-94.491616575662079,-14.174894488026835,0.668,0.714,0.654,1,
-9.9596292703196809,-94.917833997385515,-14.591824878493753,0.316,0.422,0.39,1,
-9.2756040282659935,-95.024683918533412,-14.209541107750855,0.43,0.52,0.52,1,
-8.3597687798686593,-94.839699814031064,-14.513461921978887,0.351,0.429,0.345,1,
126.26015606407748,-94.571623599932764,-13.899580850420534,0.763,0.772,0.745,1,
131.83504624514342,-95.098885137190337,-14.184194773179115,0.573,0.561,0.631,1,
132.99145947208046,-94.559306211863259,-14.09199920658466,0.7,0.753,0.737,1,
133.22948801011592,-94.664245758053767,-13.808852223746726,0.737,0.753,0.753,1,
-13.987445928300701,-93.440070106396433,-14.241297596981894,0.533,0.559,0.484,1,
119.84132457783403,-92.911458733624386,-14.226285305767306,0.973,0.965,0.914,1,
121.52086803201456,-92.963947683983861,-14.162601297300625,0.936,0.922,0.909,1,
125.16110119054957,-93.098418049919474,-14.407963019493764,0.675,0.696,0.639,1,
127.724841838468,-93.745670145608528,-14.011374746871752,0.952,0.931,0.914,1,
129.14434074680514,-93.903154620420537,-13.606927091132093,0.988,1,0.98,1,
144.64090447496858,-93.323810865513224,-13.664238555293196,1,0.992,0.992,1,
143.32027761668087,-92.570949637433841,-13.967820819971166,1,1,0.978,1,
145.87727250656712,-92.105645870219632,-13.520338931130027,0.965,0.949,1,1,
120.08294713702128,-91.14490635738548,-14.100906831231441,0.986,0.988,0.953,1,
121.22376713961103,-90.764552953051805,-14.399817447383334,0.994,0.989,0.981,1,
123.28489324872294,-90.757625789024132,-14.532355767187255,0.718,0.737,0.584,1,
141.5007707288396,-90.556702376147769,-13.981969314045273,0.984,1,0.953,1,
121.53338627747701,-90.063974373038036,-13.631737368768881,0.988,1,0.933,1,
125.19872706216462,-89.641677318278994,-13.577027529360075,0.576,0.652,0.545,1,
128.63435520600319,-90.153413715370334,-13.650360634755998,0.659,0.722,0.604,1,
129.59632032732316,-89.9644252783105,-13.599446402281501,0.927,0.916,0.888,1,
133.30988022097756,-90.102527703947999,-13.692965745804031,1,1,0.988,1,
145.76864510168264,-89.573737357682148,-13.503010349040778,1,0.996,0.988,1,
121.91664439595684,-88.696681584773955,-14.230282995034427,0.602,0.62,0.535,1,
124.5383737924044,-88.712031752038456,-13.936819258333344,0.592,0.659,0.529,1,
128.6748355669215,-88.968107450758666,-13.992389124268811,0.948,0.954,0.905,1,
143.09545277413349,-88.396286522538503,-14.588276482072615,0.988,0.973,0.937,1,
144.48593539029275,-88.685464357638466,-13.83564031300466,0.984,0.967,0.941,1,
146.69051548075629,-88.343233294381207,-14.579742261275896,0.969,0.965,0.882,1,
120.16701039932798,-86.703624210144881,-14.089599907265438,0.675,0.784,0.635,1,
122.44408448651711,-87.025392098780685,-13.993029033372295,0.839,0.867,0.794,1,
123.38406103996391,-87.052838514978248,-14.331277477594995,0.776,0.778,0.798,1,
131.20866946913168,-87.394639220406134,-14.313485531829429,1,0.992,0.988,1,
142.25777746801782,-86.74263708030594,-14.320565546768194,0.982,1,0.978,1,
144.61452653084962,-87.458304395795494,-13.620598083813885,0.958,0.965,0.922,1,
121.76652106440145,-86.558634045559302,-14.403419216932889,0.882,0.914,0.784,1,
144.62364650720815,-86.164383766060837,-13.895129651473603,0.825,0.836,0.831,1,
121.39323330664809,-85.211998773502273,-14.02079277704582,0.787,0.79,0.682,1,
149.32647701224766,-84.794568524746978,-14.134427429250419,0.727,0.712,0.682,1,
142.97093799989113,-83.902596718417044,-14.368877928632173,0.506,0.512,0.351,1,
145.12300052864191,-81.979160572132059,-14.048750394977105,0.996,0.984,0.949,1,
71.746614245213891,-80.958485284649271,-13.590285040550043,1,0.999,0.995,1,
72.847747206402076,-81.111931828883883,-13.752477184587885,1,1,0.993,1,
145.15795922331876,-81.157077077307349,-13.668787687493023,0.688,0.716,0.639,1,
70.75539580778667,-80.164503677906396,-13.557543114757209,0.992,1,0.996,1,
71.407907907694579,-79.84371396730694,-13.795395615261441,1,0.996,0.997,1,
72.672620216876481,-79.848266935606532,-13.81081966551012,0.999,0.999,0.996,1,
71.83374186013225,-79.281129745822909,-13.973055084761654,1,1,0.992,1,
72.310077767561154,-79.176311505761987,-13.935906155495559,1,0.999,0.994,1,
149.6604787750988,-58.76319768882837,-13.962719272436752,0.932,0.945,0.908,1,
150.65108950869543,-58.834350489291865,-14.490913294480379,0.995,0.997,0.978,1,
151.5097491292039,-58.839510666075512,-14.61442488675857,1,0.996,0.898,1,
149.81985351094852,-58.025227966481964,-14.117215980832265,0.973,0.964,0.928,1,
134.62292963011379,-56.589527135631478,-14.209795714413554,0.634,0.669,0.542,1,
135.85040272902859,-57.006533407767677,-14.300911462138966,0.8,0.799,0.702,1,
148.24784068295571,-56.815876607174687,-13.665047008544207,0.988,0.992,0.973,1,
149.70466921603531,-57.129317157773585,-13.472667775431546,0.973,0.992,0.976,1,
134.75655666620347,-56.042295167003651,-14.234200108148299,0.579,0.636,0.541,1,
159.27518584665791,-55.41825932368738,-14.519535047081146,0.995,0.999,0.99,1,
160.64615783569991,-56.013436373234526,-14.34217106975666,0.892,0.876,0.871,1,
134.00187087029281,-54.546021898431718,-14.280303047939924,0.88,0.908,0.863,1,
135.56683021320737,-54.372259981505522,-14.537390071609479,0.953,0.969,0.945,1,
145.56333775498587,-54.502305175674337,-13.564619089265761,0.998,0.996,0.986,1,
146.76418125269208,-54.325689997654081,-13.556455036223269,0.898,0.933,0.808,1,
158.41859283277415,-54.657234939554655,-14.548898175235081,1,1,1,1,
144.65640472820951,-52.51014653765651,-13.583438750401911,1,1,1,1,
145.91941812741982,-52.955957348103652,-13.854446965751999,0.989,0.994,0.992,1,
147.17350846549238,-52.856119268085422,-14.008945601062806,0.984,0.982,0.953,1,
148.06040708425172,-53.182225550358339,-13.983394302385655,0.951,0.949,0.907,1,
149.70031326235755,-52.703495561843283,-14.176007028368076,0.998,1,0.996,1,
150.80047683461828,-53.629372076215986,-13.833534635523392,1,1,0.982,1,
151.5300378348411,-53.547384445286063,-13.928493355403193,0.996,0.996,0.982,1,
145.88884887512421,-52.144339987023614,-13.799078766965067,1,1,1,1,
147.4154112398507,-52.235660541875006,-14.149141682437971,0.999,0.997,0.993,1,
148.18705433409463,-51.681799471663957,-13.95810467483577,0.986,0.983,0.977,1,
149.23946239765229,-51.554663939157308,-13.774731344255997,1,1,0.996,1,
148.39864363890953,-50.829024507947906,-14.088827357634226,1,0.999,0.998,1,
149.46695325576798,-51.052281176566794,-14.261136619779791,1,1,1,1,
148.36107897089335,-49.93251038271751,-13.533704216399656,0.999,0.999,0.999,1,
111.1687692322505,-47.701405978273215,-14.511690594645188,1,0.996,0.973,1,
112.65847367158244,-47.653289222845949,-14.542796657982526,0.923,0.935,0.807,1,
191.40249037910451,-48.044147321775199,-14.377735710695561,1,1,1,1,
194.48715938580108,-47.681601088243042,-13.557547127902581,1,1,1,1,
111.53590002507873,-47.014501848979265,-14.46748184605412,0.917,0.928,0.893,1,
113.47055865684297,-46.969618992420692,-14.537852617877434,1,0.992,1,1,
187.86358458349639,-46.803181543850769,-13.492491451643218,0.996,0.996,0.988,1,
111.87463070077285,-46.320620586660368,-14.596720059026902,0.921,0.924,0.823,1,
190.17545583487561,-45.924460535502476,-14.30733044230692,0.992,0.992,1,1,
174.39209701525016,-44.13027109393397,-14.440292025028612,1,1,1,1,
184.00973661485409,-44.582168235365316,-13.806037383119474,1,1,1,1,
175.50619200100925,-43.152515081033016,-13.765002665498404,0.94,0.953,0.914,1,
176.76705910221358,-42.798591975573011,-14.469600027950946,0.952,0.935,0.871,1,
177.15709861029438,-43.319113567008571,-13.765145014303926,0.992,0.976,0.914,1,
181.70244769798671,-43.414007568003399,-14.332706289224006,0.996,0.996,1,1,
164.1688425737442,-41.857655245962633,-14.57677636039989,0.996,0.996,0.996,1,
173.81557736946718,-41.852692265820224,-14.450386445332697,0.953,0.925,0.878,1,
175.60582024426452,-42.303466582609417,-14.1041918737983,0.965,0.951,0.876,1,
176.51319324961889,-42.536366558465488,-13.689654919062377,1,0.992,0.953,1,
152.9574576988324,-40.865656530399974,-13.803387721509353,1,1,1,1,
163.99721205274886,-40.773808755716345,-13.823727924773266,1,1,1,1,
175.6182493055114,-41.024356682157759,-14.109935346198199,0.972,0.959,0.947,1,
177.55787887040242,-40.779739351061714,-13.993454714787967,0.932,0.944,0.897,1,
151.93974989273329,-39.090246496868986,-13.841625299164662,1,1,1,1,
153.3900036639929,-39.579861960324372,-13.961322818671629,1,1,0.996,1,
153.90971294459987,-39.659055712633062,-14.378715716247825,1,1,1,1,
157.10823065504087,-39.425723005024338,-14.200342349113271,1,1,0.992,1,
161.98577858567376,-39.065069793764451,-14.491660912199222,1,1,0.988,1,
163.51400779974767,-39.536948590921384,-14.227850746237891,0.973,0.988,0.922,1,
164.02913582292123,-39.87466638688764,-13.800538635808103,0.999,0.996,0.989,1,
165.18947923195526,-39.957306313453955,-14.101257968377467,0.975,0.959,0.975,1,
166.9564802528356,-39.113923523359517,-14.470312149796882,0.988,0.988,0.973,1,
150.60391472134006,-38.302783688988761,-14.179483762616075,1,1,0.999,1,
152.16225889417956,-38.96957570361792,-13.596837854947808,1,1,1,1,
153.06124583696291,-38.542362217063307,-13.965356510670102,1,1,1,1,
154.32888608254757,-38.342286983190085,-14.330634695246259,1,1,0.997,1,
155.67183268238693,-38.804551065538817,-14.198975384260848,0.998,1,0.996,1,
156.31704412058411,-38.875136135061439,-14.491941564074295,0.765,0.733,0.69,1,
161.71574154480339,-38.065383961338739,-14.159083777940396,0.912,0.907,0.925,1,
165.41357196523165,-38.470503702114911,-13.825813625771843,0.961,0.957,0.947,1,
174.35886965010639,-38.470132575980642,-14.030954920372096,0.918,0.902,0.925,1,
28.462130852897616,-36.733840398284201,-14.241984295324528,0.969,0.982,0.982,1,
151.1059429658701,-37.625504445486513,-14.589578709092166,1,1,1,1,
152.38538860055883,-37.168232334181539,-13.999700081512856,0.999,0.998,0.997,1,
153.16753542779503,-37.200152176937728,-14.1751221287284,0.998,0.998,0.999,1,
154.5867637272147,-37.129752111771388,-14.319595738546131,0.999,0.999,1,1,
155.78232982379149,-37.322730600142798,-14.383117906883736,0.997,0.992,0.991,1,
163.97264601053507,-37.245488646249214,-13.75054518973684,0.965,0.982,0.984,1,
27.374675318014852,-35.540778476009784,-13.980676441557316,0.908,0.89,0.889,1,
28.702361869794579,-36.005111345951967,-14.185106269796188,0.856,0.84,0.852,1,
29.822494673144572,-35.688877033084601,-14.200894491672166,0.896,0.88,0.87,1,
30.557696641153598,-35.601735917509814,-14.223216543314265,0.996,0.969,0.963,1,
32.662850923740329,-35.98789046994483,-14.43404180188651,0.967,0.963,0.963,1,
151.95013724567053,-36.055962100733637,-13.949494143963015,0.993,0.991,0.988,1,
153.33960833491534,-35.918103671406243,-14.034370306847677,0.992,0.989,0.982,1,
154.2699987769447,-36.004991477259495,-14.151506967436667,0.998,0.994,0.989,1,
155.5975978861951,-35.936423175870203,-14.236370148479892,0.996,0.999,0.997,1,
157.05122393452342,-36.023142639010075,-14.481968802897427,0.996,0.988,0.988,1,
164.20601610718677,-36.316965445166716,-14.266417318822278,1,1,0.98,1,
