-221.01801558954054,-200.58209984938458,301.25616299187641,0.69215686274509802,0.76078431372549016,0.70588235294117641,1,
-220.58164883499848,-200.55653998996254,301.17940597720991,0.73115468409586071,0.79302832244008714,0.78518518518518521,1,
-216.42222363490282,-200.21390677064653,300.80920487713604,0.87114845938375363,0.91932773109243693,0.96078431372549011,1,
-238.19857918577048,-199.20103482129775,300.94573841247751,0.93168880455407943,0.94636306135357329,0.90360531309297887,1,
-237.72950610749521,-199.19329862052331,300.96563085168668,0.62930856553147574,0.67058823529411771,0.74798761609907127,1,
-236.09666209399415,-199.56399849947459,300.98684960620403,0.4888480392156862,0.582843137254902,0.60171568627451,1,
-234.84886867857102,-199.8008035727139,301.27659901988125,0.47712418300653597,0.58039215686274503,0.57973856209150321,1,
-233.80353917098972,-199.54252634900666,300.95360221315593,0.63294117647058812,0.73901960784313725,0.71882352941176464,1,
-229.6744309530882,-199.63970681705135,301.06648796457694,0.75732410611303325,0.85905420991926151,0.75594002306805064,1,
-225.91732184228636,-200.11412561814268,301.41175437506718,0.57647058823529407,0.6588235294117647,0.5725490196078431,1,
-225.02337030382097,-199.71993011229955,301.1414492715403,0.50130718954248366,0.58104575163398686,0.52483660130718957,1,
-223.20562787321779,-199.60124655256095,301.1962122445766,0.50196078431372548,0.584313725490196,0.54117647058823537,1,
-220.3525479501825,-199.8458847214124,301.02188711111921,0.97647058823529409,0.97647058823529409,0.82745098039215681,1,
-219.50747162638368,-199.92677023935812,301.22358165840524,0.63137254901960782,0.72156862745098038,0.61568627450980395,1,
-216.41260358938985,-200.13422011905175,300.9516730130951,0.75263951734539969,0.79607843137254897,0.88084464555052788,1,
-205.65563544570398,-199.2365535981358,300.71434775815476,0.87712418300653594,0.89673202614379077,0.7522875816993464,1,
-204.28020294686877,-199.56337549454389,300.95845730689518,0.91666666666666674,0.94313725490196088,0.86797385620915035,1,
-203.30340332858771,-199.39133147261145,300.49492452349114,0.99215686274509807,0.99607843137254903,0.96470588235294119,1,
-243.12982599259402,-197.78951653984188,301.00871445358723,0.50117647058823533,0.60705882352941187,0.47254901960784312,1,
-242.41899816621836,-198.04526018371016,300.89855868503491,0.67894931557528659,0.71927487976322568,0.67946725860155377,1,
-240.9638187894858,-198.16902084471621,301.26668449743988,0.38039215686274508,0.4065359477124183,0.43856209150326797,1,
-240.1464888289384,-198.54018023512444,300.92391371603964,0.58449197860962587,0.64955436720142612,0.67682709447415323,1,
-238.67709928936358,-198.83668447912061,301.04171628102807,0.51251885369532424,0.59939668174962291,0.59547511312217205,1,
-237.86549383160798,-198.22382846869573,300.96590099285169,0.62036199095022626,0.69562594268476619,0.75656108597285054,1,
-233.61408080687289,-198.47133374352899,301.12814532380736,0.68823529411764706,0.80142602495543669,0.77682709447415321,1,
-233.02354319856778,-198.40152012056939,301.01676434401259,0.59607843137254901,0.61568627450980395,0.68862745098039202,1,
-229.39792677079186,-198.56131731501165,301.32678562343528,0.72026143790849673,0.83529411764705874,0.73398692810457522,1,
-224.46743090963867,-197.94476848232989,300.73589724452177,0.30588235294117649,0.38039215686274508,0.36078431372549019,1,
-215.92260438241584,-198.08983601421914,300.87252284848375,0.75490196078431371,0.81960784313725499,0.92483660130718959,1,
-205.60436301878732,-198.35922171346775,300.69468921018029,0.94814814814814818,0.97254901960784312,0.90588235294117636,1,
-204.77888617439294,-198.79304012931698,301.42053710960681,0.87058823529411766,0.87058823529411766,0.63529411764705879,1,
-203.4321859262775,-198.43331555958605,300.64605250810337,0.6737967914438503,0.73048128342245977,0.60998217468805704,1,
-247.09768433087143,-196.6752185608006,301.266603767974,0.44923747276688453,0.53115468409586064,0.47668845315904146,1,
-246.03923708507531,-197.12210635085435,300.9228611697917,0.72102396514161204,0.76427015250544672,0.7096405228758168,1,
-244.69581871989831,-197.37670286334748,300.8926241426546,0.50618019359642608,0.57850583271283218,0.53581533879374543,1,
-243.64444916017774,-197.64255762068166,300.86297433576101,0.5116395494367959,0.57964121818940328,0.55127242386316233,1,
-242.12418778456035,-197.34100398437732,300.88309411464064,0.59775910364145657,0.6747899159663866,0.67310924369747904,1,
-241.6875752235062,-196.76212653479297,300.72220728129651,0.76078431372549016,0.80980392156862746,0.90588235294117647,1,
-237.57339965987529,-197.10288946445471,301.12724377251988,0.72738772928526252,0.81518026565464885,0.83554712207463622,1,
-233.38592521956303,-197.20930315723194,301.19684054265406,0.75228758169934651,0.87581699346405228,0.82810457516339864,1,
-205.39553941342464,-197.44779830489279,301.08082089839172,0.91764705882352948,0.93235294117647061,0.89411764705882346,1,
-204.399794426178,-197.49942079215543,301.44467648256068,0.99215686274509807,0.98431372549019602,0.99607843137254903,1,
-251.97834466944124,-195.43917537926254,300.83101573650129,0.80696517412935331,0.84085455077553428,0.80620427275387752,1,
-250.82380050723219,-195.80982191208739,300.8492924914741,0.92855392156862715,0.94080882352941142,0.90343137254901928,1,
-249.88231261434098,-195.74158528152529,300.89280673392392,0.73297682709447431,0.77813428401663687,0.72893642305406992,1,
-248.28771016277616,-196.3479019656919,300.94379578599728,0.48425430778371958,0.56648841354723689,0.5158645276292334,1,
-247.55841561967418,-196.27605332393244,300.59337935843701,0.64117647058823535,0.74248366013071898,0.65882352941176481,1,
-245.99141444153122,-195.95251516923872,301.02356674410692,0.49843137254901954,0.58411764705882352,0.5405882352941177,1,
-241.4395933609151,-196.18663619162646,301.17579664832306,0.71421568627450982,0.7583333333333333,0.85049019607843124,1,
-227.08906907500409,-195.64952375333178,301.21856452183238,0.29019607843137257,0.3411764705882353,0.39215686274509803,1,
-215.42562054600424,-196.10377148292363,300.99074940004857,0.76561085972850673,0.80542986425339358,0.90648567119155343,1,
-256.53805180443857,-194.35808580250458,300.97585233293643,0.79260935143288092,0.8567119155354449,0.7634992458521872,1,
-255.46979814687037,-194.54294076155065,301.22627254769441,0.51176470588235301,0.62450980392156863,0.54509803921568623,1,
-254.46547061833525,-194.9643190818054,300.90769111559058,0.77062523122456505,0.81169071402145776,0.75338512763595977,1,
-253.18199554325321,-195.12737516549777,301.23390263819772,0.52745098039215688,0.61633986928104578,0.59281045751633987,1,
-252.6349488239224,-195.26069353275943,301.25024054655114,0.44313725490196076,0.52941176470588236,0.52156862745098043,1,
-249.92295837665714,-194.87784571538214,301.06945483901359,0.49757785467128041,0.57416378316032302,0.54071510957324098,1,
-245.78024426056305,-194.78179575358467,301.28979477950679,0.54117647058823526,0.65784313725490196,0.58333333333333326,1,
-241.25261970305206,-194.66307308761088,301.35318843349523,0.78627450980392155,0.84313725490196068,0.75,1,
-232.70600061249286,-194.58032598890895,301.17652718786303,1,1,0.99215686274509807,1,
-202.69120766208931,-194.17207246789303,300.63657169137059,1,0.99607843137254903,0.99411764705882355,1,
-258.44981025651163,-193.89766091053306,300.93023700176138,0.72883079157588981,0.80246913580246915,0.72643427741466959,1,
-257.37670243632965,-194.05251428281645,301.29241023757913,0.53725490196078429,0.63725490196078427,0.60588235294117654,1,
-255.50005182314567,-194.06565995609526,300.43621514550978,0.9137254901960784,0.97647058823529409,0.93333333333333335,1,
-249.81239422306817,-193.87777759433789,301.30306024744868,0.61862745098039218,0.71666666666666667,0.62549019607843137,1,
-245.54278724775475,-193.88227060744612,301.50253510214498,0.55686274509803924,0.66666666666666663,0.61176470588235299,1,
-235.72793507267181,-193.58640622499479,301.06873970566994,0.5725490196078431,0.63529411764705879,0.76078431372549016,1,
-202.70907318579862,-193.90737189951324,300.31539668812002,0.9882352941176471,1,0.98431372549019602,1,
-214.42460096631893,-192.05765375673423,301.10654108710833,0.54509803921568623,0.58431372549019611,0.67352941176470593,1,
-257.95196039166274,-191.62822603561835,300.90110142509729,0.77647058823529413,0.81960784313725488,0.77254901960784317,1,
-245.98722162676029,-190.94713855679402,301.3852466631306,0.43137254901960786,0.53333333333333333,0.47843137254901963,1,
-257.71179856281077,-189.68281730979336,300.88063848016378,0.32941176470588235,0.38599439775910366,0.33053221288515405,1,
-257.5664515194423,-189.71887446653568,300.96985587363179,0.55784313725490198,0.62254901960784315,0.53627450980392155,1,
-213.87941433606034,-189.93396280563957,300.73613927811493,0.43529411764705883,0.51372549019607838,0.47058823529411764,1,
-256.59233678128362,-185.63293126886842,300.83615835186095,0.48540305010893248,0.52418300653594774,0.54596949891067537,1,
-212.85108552231452,-185.8585305546967,301.09854981787976,0.4392156862745098,0.46666666666666667,0.33333333333333331,1,
-256.69801281705179,-185.2624082124521,300.84367522666355,0.51960784313725483,0.59477124183006536,0.6124183006535947,1,
-255.6277665237991,-181.54251653697855,300.81025942399754,0.50901960784313727,0.48627450980392156,0.70039215686274514,1,
-211.0989617234485,-179.89928140821121,300.90496201296446,0.53333333333333333,0.61176470588235299,0.48627450980392156,1,
-254.56027210751631,-177.48615517655247,300.92652474195404,0.67137254901960786,0.67529411764705871,0.90784313725490184,1,
-210.26064346088918,-176.14804001084394,301.0652419715143,0.51764705882352935,0.58823529411764697,0.43333333333333335,1,
-253.56453252364491,-173.54513719898989,300.86064847769933,0.64117647058823535,0.62549019607843137,0.77516339869281048,1,
-252.89275294863717,-170.83907086885119,301.02243857726307,0.53235294117647058,0.58333333333333337,0.67058823529411771,1,
-252.61026529524361,-169.30596520651875,300.86943192941362,0.43529411764705883,0.4823529411764706,0.49313725490196081,1,
-355.54561129024609,-167.98560230957577,300.75832085534159,0.9464052287581699,0.96601307189542474,0.93986928104575163,1,
-364.04276874148184,-167.00437294048243,300.45721522924396,0.80392156862745101,0.8784313725490196,0.80392156862745101,1,
-355.15649398842913,-166.3597221519808,300.54026166340009,0.95294117647058818,0.96666666666666667,0.95294117647058818,1,
-354.80389688603373,-165.30945339908953,300.81430533812181,0.92450980392156867,0.94215686274509802,0.9088235294117647,1,
-251.53808320072523,-165.25403012622064,300.81002067208817,0.37333333333333335,0.43137254901960786,0.36627450980392162,1,
-354.43521818673082,-163.86486773953379,300.98593936799034,0.89215686274509809,0.92843137254901964,0.87549019607843137,1,
-381.27206803328068,-162.73657201509195,301.08577890359811,0.49411764705882355,0.4823529411764706,0.69803921568627447,1,
-380.08163014592145,-162.98398963821569,301.04215682058566,0.65620915032679739,0.68366013071895426,0.82091503267973853,1,
-378.96405010517969,-163.3242252017908,301.10934015851853,0.64313725490196083,0.65490196078431373,0.81568627450980391,1,
-378.20853224336065,-163.51643938151028,300.97677798721634,0.46666666666666667,0.49803921568627452,0.68627450980392157,1,
-354.30031776934572,-163.2112700849575,300.84490046723033,0.75816993464052285,0.8366013071895424,0.72679738562091512,1,
-386.13610569598694,-161.49461757635208,301.21770343896515,0.68823529411764706,0.69999999999999996,0.81764705882352939,1,
-384.47608831806451,-161.92045899543928,300.82934972369912,0.90980392156862744,0.89999999999999991,0.94117647058823528,1,
-383.27042087122481,-162.00648995209121,300.35001996338906,0.75686274509803919,0.81568627450980391,0.90588235294117647,1,
-353.76746209607762,-161.56332917205418,301.2058021613484,0.5490196078431373,0.6333333333333333,0.52745098039215688,1,
-250.48414017490944,-161.18769053178994,300.77278195761892,0.38725490196078433,0.40588235294117647,0.32450980392156864,1,
-388.7140999596686,-160.82757555636817,300.85343276084586,0.97941176470588243,0.95490196078431366,0.9696078431372549,1,
-387.89292285063698,-158.34498684398568,300.42963910091203,0.67450980392156867,0.77647058823529413,0.9137254901960784,1,
-249.44822613987699,-157.11483182784036,300.89010198082633,0.36372549019607842,0.41764705882352937,0.35588235294117643,1,
-248.43556490923763,-153.03899075874483,300.80694189820179,0.50196078431372548,0.54803921568627456,0.49215686274509801,1,
-36.260717186533952,-122.8986373718044,301.12983365143009,0.9882352941176471,1,0.99215686274509807,1,
-42.729411775508652,-121.26478449545175,301.19447448214487,0.98235294117647065,0.99215686274509807,0.98627450980392162,1,
-304.65365575251843,-115.76745821379575,300.77956402621453,0.81862745098039214,0.85980392156862739,0.7720588235294118,1,
-303.88175263962341,-114.57880365583151,300.79097003067545,0.92156862745098034,0.91764705882352937,0.84705882352941175,1,
-233.53495972551957,-100.88818850022108,300.86312402772819,0.6823529411764705,0.75163398692810457,0.60261437908496729,1,
-240.51049048330941,-99.107954114856511,300.844991567904,0.6052287581699346,0.69934640522875813,0.55555555555555558,1,
-234.55872097619346,-99.798266954166934,300.75711576182607,0.73254901960784324,0.81333333333333324,0.69333333333333336,1,
-233.82088843244497,-99.987788039811733,300.75989283159299,0.60078431372549024,0.69098039215686269,0.59372549019607845,1,
-247.38330837721395,-96.789833183663632,300.61636766788524,0.47254901960784312,0.58431372549019611,0.49607843137254903,1,
-242.08975698773588,-97.551935709248028,300.86867928162064,0.38823529411764707,0.34901960784313724,0.30196078431372547,1,
-64.63805983255827,-47.18725051986894,300.40115132010214,0.60392156862745094,0.69411764705882351,0.6588235294117647,1,
-90.652292555586655,-31.12405354471548,300.73164794600871,0.75098039215686274,0.79411764705882359,0.76666666666666661,1,
-207.9011616094964,-206.43344077996062,301.79671678695286,0.99607843137254903,1,0.99019607843137258,1,
-206.56586714999509,-206.63332419246672,302.22452136030142,0.88627450980392164,0.89313725490196083,0.83333333333333326,1,
-206.02247882520797,-206.66255977581815,301.77104341727767,0.93277310924369727,0.94005602240896347,0.92492997198879534,1,
-207.90710291980236,-206.03130305758555,301.69528511265753,0.77745098039215699,0.82156862745098036,0.80882352941176472,1,
-206.99266839601577,-205.55636935018384,302.26581094247251,0.7213235294117647,0.77549019607843139,0.72745098039215683,1,
-205.8862370478376,-206.10400471885754,302.07470718892182,1,0.99869281045751634,0.98954248366013076,1,
-219.82029858520241,-203.90299963457869,302.51882727861835,0.77803921568627454,0.80235294117647049,0.76549019607843138,1,
-219.07566204767997,-204.07410893189871,302.51234580268573,0.73586337760910792,0.74168247944338994,0.76230234029095501,1,
-217.85365908287696,-204.27516473732143,302.20842168952436,0.89523809523809617,0.90518207282913254,0.90840336134453881,1,
-206.60830673869395,-204.50088431933466,302.17160240825547,0.82666666666666666,0.84287581699346381,0.81542483660130716,1,
-206.00954392362286,-204.21579973155247,301.8725998528754,0.83006535947712412,0.8483660130718953,0.81764705882352939,1,
-224.69531604099092,-202.65412998374643,302.62209316788358,0.97124183006535936,0.98954248366013076,0.90196078431372562,1,
-223.94550716192617,-202.78926439883355,302.31170336365523,0.66140819964349373,0.72905525846702302,0.64126559714795006,1,
-222.81393357065053,-203.10412227579815,302.50839877506542,0.74091503267973868,0.78379084967320245,0.69398692810457518,1,
-221.74538577645509,-203.26005375979921,302.1564198219445,0.71216691804927024,0.77295123177476044,0.6867269984917036,1,
-220.22801186976665,-203.60913740580745,302.2824249094441,0.69125816993464029,0.73782679738562051,0.68864379084967298,1,
-219.09469668416281,-203.03353731635943,302.45618402396258,0.61898864809081533,0.70505675954592362,0.68441692466460269,1,
-218.06340326227607,-203.48336824786401,302.13702726773874,0.84624183006535958,0.89558823529411757,0.89575163398692803,1,
-217.10156040732176,-203.35219001149596,302.43371008225495,0.82222222222222219,0.80000000000000004,0.82745098039215681,1,
-228.7544495345245,-201.5565420031723,302.31219747965554,0.65433006535947724,0.69624183006535989,0.6561274509803926,1,
-227.6687540000641,-201.78090468236266,302.1694372310518,0.55937657114127659,0.62538964303670119,0.5657616892911006,1,
-226.36697887284618,-202.1228417482493,302.14596578596928,0.63460784313725505,0.69828431372549027,0.625588235294118,1,
-225.27809857157189,-202.24609079079164,302.33496051972287,0.55916955017301051,0.62360630526720495,0.55816993464052278,1,
-223.96179942069659,-201.84641058395903,302.41932083968356,0.57900807381776231,0.66897347174163768,0.58131487889273359,1,
-222.79790051860815,-201.87970928338905,302.44967147825707,0.55549019607843142,0.66000000000000003,0.57294117647058818,1,
-221.46537643720322,-201.99524298537386,302.45246682893298,0.72464985994397757,0.82464985994397733,0.70980392156862737,1,
-220.45223698990034,-202.06256207032396,302.4576117292105,0.57509803921568625,0.68372549019607831,0.57274509803921581,1,
-219.083774568124,-201.96499901228071,302.45457019640986,0.74595055413469724,0.81125319693094633,0.79028132992327371,1,
-218.03490806146658,-201.91151158616083,302.45852215921354,0.85921568627450973,0.90352941176470591,0.90196078431372539,1,
-216.9695497017654,-202.08414321651463,302.1330667962352,0.47633986928104577,0.48679738562091496,0.57437908496732026,1,
-233.88164451076554,-200.31275493691825,302.25770763658068,0.85303454715219462,0.86629318394024324,0.81736694677871158,1,
-232.38180748506448,-200.64406880672848,302.36551710676684,0.65131652661064443,0.69725490196078432,0.65030812324929965,1,
-231.315494074745,-200.84727677241258,302.49352481233285,0.6699523052464228,0.68807631160572347,0.65797562268150478,1,
-230.04905290937654,-201.13127086885396,302.15734763734901,0.68673587081891607,0.72885813148788914,0.69277970011534018,1,
-229.10498290200948,-201.18012404577306,302.03773446047353,0.4369386464263123,0.52068311195445927,0.49070208728652753,1,
-227.69851601407015,-200.62683907999229,302.4565893476472,0.42941176470588238,0.53202614379084967,0.50392156862745086,1,
-226.59078494524226,-200.89692299649187,302.4546331170086,0.44705882352941173,0.55980392156862746,0.4602941176470588,1,
-225.30868923869184,-200.70275354860834,302.25544170302987,0.43261093911248721,0.52817337461300318,0.44829721362229102,1,
-224.00760634193995,-200.81319682249938,302.44775665649536,0.56627450980392158,0.65464052287581687,0.57960784313725489,1,
-222.85117092432083,-200.71256069661564,302.45045311994568,0.61364705882352943,0.71498039215686271,0.61976470588235277,1,
-221.45825248952394,-200.82098870179004,302.44860574767216,0.72014260249554363,0.8185383244206772,0.70802139037433143,1,
-220.40536781342601,-200.65183121478952,302.45461694253851,0.67450980392156867,0.7690009337068161,0.65564892623716164,1,
-219.06549736935065,-200.67109809337097,302.45543915943585,0.55228758169934644,0.63790849673202621,0.6307189542483661,1,
-217.94462066523079,-200.90717064301157,302.45683883456667,0.76969696969696977,0.82495543672014271,0.82709447415329762,1,
-216.53852977863181,-200.49067633987505,302.18280765701877,0.72573529411764715,0.76446078431372555,0.78186274509803932,1,
-238.46095558666764,-199.13154584912689,302.25995079007419,0.84624183006535991,0.85678104575163438,0.82704248366013089,1,
-237.5053230228641,-199.36285638071206,302.37754937619155,0.75050344462109164,0.77488076311605714,0.75887652358240576,1,
-236.17343672926867,-199.64808946524414,302.3064509218276,0.62148337595907932,0.66547314578005112,0.64168797953964185,1,
-234.9231673350402,-199.80822804451904,302.48907830247919,0.67820728291316523,0.71607843137254912,0.69557422969187654,1,
-233.87329894053454,-199.51470347097739,302.09375743363466,0.56633986928104574,0.66225490196078451,0.64232026143790855,1,
-232.45830408312267,-199.53246582692486,302.44357617410401,0.62374727668845309,0.75424836601307188,0.69346405228758157,1,
-231.33772131671171,-199.55903362344984,302.44351527617232,0.53427450980392166,0.63341176470588245,0.6069019607843138,1,
-229.88480232080667,-199.58555524866472,302.18758611696205,0.70765338393421906,0.83516761543327023,0.73573687539531951,1,
-228.74638003843262,-199.46278785672234,302.45936815125162,0.40261437908496733,0.46928104575163399,0.46274509803921571,1,
-227.24546966035791,-199.474686104395,302.45866132929677,0.43431372549019609,0.52352941176470591,0.48725490196078425,1,
-226.30733490813515,-199.35417272487655,302.4563703968397,0.47450980392156861,0.56209150326797386,0.4836601307189542,1,
-225.16019501726464,-199.73526676469788,302.13473479129505,0.40588235294117642,0.50416666666666665,0.457107843137255,1,
-224.13509286805271,-199.50072218932746,302.45244857951548,0.36644880174291938,0.46013071895424829,0.41220043572984744,1,
-222.84952167811289,-199.67995066059007,302.45271534092564,0.50516934046345818,0.59679144385026739,0.50445632798573969,1,
-221.38706002110598,-199.5083563123784,302.44740991145159,0.65764705882352947,0.75058823529411767,0.66745098039215689,1,
-220.45166247900121,-199.30393905977729,302.45209193077994,0.62709447415329767,0.71693404634581104,0.6320855614973262,1,
-219.10250873604238,-199.51158063285845,302.4527737454008,0.72426470588235303,0.80220588235294099,0.74485294117647038,1,
-218.2020959767475,-199.37536267087802,302.45166623660668,0.71529411764705897,0.79098039215686278,0.77058823529411757,1,
-216.52188648687675,-200.10296692011403,302.03765733132218,0.82352941176470562,0.84262574595055417,0.85626598465473136,1,
-216.00234259026269,-199.10589318953953,302.43156881283539,0.87647058823529411,0.88823529411764701,0.90588235294117647,1,
-205.09681169234045,-199.77097685512035,302.60796832294545,0.99607843137254903,1,1,1,
-204.63862773435176,-199.47547728486364,301.91670495719359,0.9341176470588235,0.96549019607843145,0.8666666666666667,1,
-203.0367716362183,-199.22547502631005,301.70671419114115,1,1,1,1,
-243.39072771946275,-197.84558417896363,302.39054903428041,0.75588235294117645,0.77696078431372551,0.71699346405228748,1,
-242.38140338586845,-198.08626558144749,302.14295735999542,0.75743200506008834,0.78836179633143566,0.70948766603415525,1,
-241.09956610651156,-198.40026525667852,302.49822402566076,0.69601901366607255,0.71301247771836007,0.69079025549613782,1,
-239.96115090183622,-198.61738132651934,302.27846113336176,0.65131414267834808,0.69445139758030872,0.69036295369211498,1,
-238.73495443759856,-198.26076734144493,302.43851385250764,0.55147058823529416,0.64950980392156865,0.61911764705882344,1,
-237.65813887009045,-198.3055915035911,302.12232938538307,0.48832054560954807,0.57834612105711847,0.60034100596760442,1,
-236.1891853754594,-198.3695480834688,302.44885139765199,0.5982570806100217,0.71648511256354386,0.69208424110384881,1,
-235.06716559579201,-198.38824113816932,302.44685408823523,0.626890756302521,0.75518207282913152,0.70700280112044811,1,
-233.70963635391846,-198.33214418551125,302.12642119685387,0.64303126656067833,0.76269210386857456,0.71499735029146783,1,
-232.65627051692246,-198.5765974885112,302.44717654369424,0.4882352941176471,0.54264705882352948,0.58529411764705874,1,
-231.29488318359759,-198.36118603212827,302.44401808179776,0.55784313725490187,0.65882352941176481,0.63571428571428612,1,
-230.2075777075932,-198.28686237822524,302.44313925251731,0.64607843137254894,0.78431372549019607,0.66323529411764715,1,
-229.23147208101875,-198.47682279034134,302.12515537367756,0.5729055258467024,0.68983957219251324,0.6183600713012477,1,
-227.64148746221014,-198.30427400430978,302.46171410188538,0.39477124183006529,0.46666666666666667,0.44313725490196076,1,
-226.73710989523005,-198.77000856240556,302.45848391871277,0.42941176470588238,0.54313725490196085,0.49019607843137258,1,
-224.83852649837155,-198.29539677160335,302.04257308037108,0.36993464052287578,0.45359477124183006,0.41045751633986927,1,
-223.84807951524255,-198.10989591642681,302.45250198845497,0.35490196078431369,0.43856209150326797,0.39411764705882346,1,
-222.88723710413572,-198.28959206942415,302.45409193462859,0.45185185185185178,0.54161220043572988,0.46579520697167753,1,
-221.21291427002421,-198.39699761587309,302.44982265548947,0.58352941176470585,0.66588235294117648,0.61803921568627451,1,
-220.34432813663545,-198.31824859928378,302.45239358593301,0.55895424836601304,0.63816993464052296,0.60679738562091512,1,
-218.96908620318789,-198.32936274584571,302.45503481663826,0.56651583710407227,0.64253393665158354,0.6654600301659126,1,
-217.98879345240135,-198.33957456186934,302.45307179298351,0.73155080213903756,0.80819964349376128,0.78787878787878796,1,
-216.91509287162819,-198.2983736260735,302.45509806945847,0.91764705882352937,0.9764705882352942,0.87450980392156863,1,
-215.84083194611497,-198.06325646015921,302.22715001826828,0.58676470588235308,0.64264705882352935,0.72499999999999987,1,
-205.39998645333429,-198.29851890426659,302.14847597505923,0.86862745098039207,0.89999999999999991,0.83215686274509815,1,
-203.72157616027425,-198.10457611583843,302.65117135400033,0.92941176470588238,0.98039215686274506,0.90980392156862744,1,
-248.29254053406245,-196.63812774919992,302.52508250891486,0.79573742540494452,0.79744245524296686,0.75788576300085253,1,
-247.24294878486015,-196.87780405597294,302.49939789041446,0.71715686274509827,0.73607843137254925,0.68833333333333313,1,
-245.9678488287237,-197.14193009909758,302.15059520544486,0.73225957049486357,0.76498599439775794,0.71358543417366871,1,
-244.72159593339899,-197.41493684236889,302.16878256664251,0.59736907421196328,0.64437825763216683,0.60292876644328641,1,
-243.67762829485966,-197.59538160841473,302.10999329243759,0.50997442455242981,0.56385336743393011,0.52975277067348658,1,
-241.9595295546853,-197.21504257386613,302.14040440917245,0.4906862745098039,0.52965686274509804,0.60269607843137263,1,
-240.94886345082278,-197.24508842216409,302.45318782351649,0.60156862745098039,0.74941176470588233,0.64509803921568631,1,
-239.9039088664459,-197.0571656698894,302.44941545976235,0.60588235294117643,0.74039215686274507,0.66921568627450989,1,
-238.69713454960805,-197.1288194040871,302.4525225545932,0.61546840958605664,0.73442265795206974,0.69629629629629619,1,
-237.63256895668411,-197.11483566438565,302.08341074041192,0.64336793540945791,0.74948096885813142,0.75236447520184524,1,
-236.05977803474093,-197.19628767468578,302.4480248429029,0.54264705882352948,0.63995098039215681,0.68504901960784292,1,
-235.05082696118757,-197.147074911955,302.4464000810334,0.61568627450980384,0.76493656286043843,0.67312572087658595,1,
-233.47442029144099,-197.21905099729014,302.11323065225395,0.63294117647058812,0.77823529411764714,0.69529411764705884,1,
-232.93110090410852,-197.12169291908916,302.24298313441977,0.46890756302521008,0.49971988795518207,0.57198879551820725,1,
-231.10695124515718,-197.34644247961342,302.44202862661496,0.47647058823529409,0.54019607843137252,0.55980392156862746,1,
-229.97054389283068,-197.02703671435367,302.43095845005672,0.67930283224400878,0.82265795206971681,0.7385620915032679,1,
-228.99829278104022,-197.01562599391374,302.18493201323304,0.62065359477124171,0.73830065359477137,0.66248366013071902,1,
-227.48214859941857,-197.42698128197844,302.46236870425491,0.40784313725490196,0.45490196078431372,0.42745098039215684,1,
-226.8032680754975,-197.04624696686324,302.46103511558431,0.37254901960784315,0.44901960784313721,0.41764705882352943,1,
-224.94870051594535,-197.57071658413338,302.12433526420057,0.55816993464052289,0.63137254901960782,0.57254901960784321,1,
-224.32631151440063,-196.94712309967611,302.21871890898922,0.43686274509803918,0.54156862745098044,0.47921568627450972,1,
-223.26576450911989,-196.90516045756112,302.4525055553795,0.36862745098039218,0.44901960784313727,0.41568627450980394,1,
-220.96833047978964,-197.22301153592525,302.45120558902272,0.43529411764705883,0.50980392156862742,0.52549019607843139,1,
-220.28377910818381,-197.0265463490606,302.45612314599543,0.48123249299719884,0.55350140056022401,0.59439775910364145,1,
-219.03914148966948,-196.94328609223987,302.45973209427291,0.60435729847494557,0.66840958605664491,0.7193899782135077,1,
-218.23207580068947,-196.9034702733552,302.45613235316716,0.54061624649859941,0.61456582633053225,0.70420168067226885,1,
-215.57936469025429,-197.28893455362578,302.32858182102973,0.49647058823529411,0.53411764705882359,0.5607843137254902,1,
-205.3437214645773,-197.34998686345762,302.31039484647226,0.99803921568627452,0.99803921568627452,0.97843137254901968,1,
-204.28398812712106,-197.42281022615771,301.80971905963361,0.99803921568627452,0.99607843137254903,0.98039215686274517,1,
-253.13002503283721,-195.40503976979039,302.52452743032563,0.87021475256769387,0.88683473389355749,0.83043884220354791,1,
-252.13409356969973,-195.58863415453709,302.29706029441081,0.66713193752077082,0.69890329012961117,0.64433366566965755,1,
-250.74968204549631,-195.98992830683031,302.32280619585163,0.83289315726290514,0.84313725490196101,0.8061624649859942,1,
-249.75850882179267,-196.10976335501962,302.38381708392325,0.75748194014447856,0.78169934640522887,0.73642930856553135,1,
-248.45373302583019,-196.15622014765299,302.26098495229724,0.55062845651080938,0.61860231271995958,0.57466063348416274,1,
-247.16554654029886,-195.76643292138735,302.45335780041125,0.51764705882352935,0.61465428276573797,0.57750257997936028,1,
-246.08057777347258,-195.90564941476458,302.15835079473118,0.48148148148148151,0.5745824255628178,0.52505446623093677,1,
-244.77641053694239,-196.01485167733301,302.45968072762253,0.45294117647058829,0.53088235294117636,0.49460784313725492,1,
-243.51007305289636,-196.00302748114862,302.44857996925555,0.45658263305322133,0.51428571428571423,0.43921568627450985,1,
-242.05432640667129,-196.08138208411702,302.31615387738941,0.45620915032679737,0.56274509803921569,0.4333333333333334,1,
-241.31022019584086,-196.04299267776071,302.15057451073335,0.58455882352941169,0.62254901960784315,0.76274509803921553,1,
-239.86539711271848,-195.883916254474,302.45231740347378,0.56062091503267975,0.66111111111111132,0.64264705882352957,1,
-238.66123784882092,-195.85311236296977,302.44894252250134,0.49197860962566842,0.60713012477718353,0.53654188948306591,1,
-237.41423783425418,-195.94960960657409,302.18910092116857,0.6483065953654189,0.75632798573975046,0.73048128342245988,1,
-236.29098190169034,-196.03046724199658,302.45112616853476,0.46764705882352942,0.50490196078431371,0.69117647058823528,1,
-234.7614135214518,-196.09474600287058,302.43919130299446,0.49215686274509807,0.58333333333333337,0.50588235294117645,1,
-233.82216822011247,-195.89927305489113,302.44015875486753,0.68104575163398684,0.7924836601307188,0.71470588235294108,1,
-232.92025742415734,-195.68690101484322,302.07557489622616,0.55784313725490187,0.60915032679738568,0.63366013071895433,1,
-231.159154412173,-195.82342289822918,302.4595622423476,0.4137254901960784,0.45098039215686275,0.51568627450980387,1,
-230.01011637444196,-196.43683260255784,302.42986181974629,0.67450980392156867,0.83137254901960789,0.73333333333333328,1,
-228.89876761016558,-195.95961966302838,302.28564285670279,0.73980392156862762,0.84882352941176475,0.76725490196078427,1,
-227.73217982282407,-195.78420498753246,302.26477097897941,0.42794117647058821,0.50833333333333341,0.50735294117647056,1,
-223.28873637694119,-195.90114064101272,302.45372471540577,0.36470588235294116,0.46666666666666667,0.42745098039215684,1,
-221.13948249579823,-196.53278941234475,302.45826000168563,0.43529411764705883,0.51764705882352946,0.52156862745098043,1,
-215.39752783096222,-196.12847764033882,302.05860489489203,0.65067873303167412,0.69653092006033179,0.80392156862745079,1,
-257.87692379905218,-194.19274504997475,302.50183823127941,0.80465686274509785,0.83578431372549011,0.78357843137254923,1,
-256.8445458538132,-194.40805013226426,302.34151947960254,0.7151439299123904,0.74443053817271565,0.7027117229870673,1,
-255.76202793789139,-194.71319505470319,302.5242322107502,0.77659313725490198,0.79105392156862742,0.76213235294117643,1,
-254.48043588797626,-194.9965251403049,302.19320474910938,0.79607843137254908,0.81608411480534238,0.7819835180448993,1,
-253.47576368979884,-194.779489215815,302.47402542691759,0.59877450980392155,0.66580882352941195,0.61164215686274515,1,
-252.2290167345742,-194.51847149788094,302.44164635038152,0.50196078431372548,0.60241327300150826,0.53453996983408747,1,
-250.86527784970309,-194.63900745343514,302.43974422981711,0.64109121909633426,0.7420289855072465,0.69479965899403218,1,
-249.83037128546465,-194.75265713902263,302.15854658904806,0.53195548489666145,0.61187069422363549,0.56046634870164291,1,
-248.41555634541322,-194.6736806927951,302.44827062204047,0.56412490922294845,0.6640522875816991,0.62309368191721148,1,
-247.2318936266027,-194.70859328146156,302.44483108829934,0.53254901960784307,0.62562091503267969,0.58614379084967316,1,
-245.95375291532247,-194.68725130762144,302.19020279905027,0.55902636916835691,0.65030425963488847,0.62974983096686965,1,
-244.43090278388257,-194.82542832046533,302.45410828191154,0.54248366013071891,0.584313725490196,0.6470588235294118,1,
-243.43918250166408,-194.71221209130391,302.44993154026014,0.4492997198879552,0.53277310924369747,0.47619047619047622,1,
-241.88038165433301,-195.11384544595444,302.44684251215403,0.481045751633987,0.55947712418300655,0.39869281045751637,1,
-241.2030191263695,-194.81783174740002,302.06028283059294,0.54186851211072662,0.60507497116493669,0.62768166089965394,1,
-239.87503154462547,-194.93854538552569,302.44894162592573,0.43725490196078431,0.4568627450980392,0.53137254901960784,1,
-238.56906734937428,-194.57095490253124,302.44770558795153,0.62026143790849675,0.76078431372549027,0.62941176470588234,1,
-237.35676331687105,-194.83144573115396,302.24280777086221,0.53627450980392166,0.6052287581699346,0.60882352941176465,1,
-236.31233751864795,-194.68405582857091,302.33249003135063,0.47269984917043728,0.50799396681749609,0.72549019607843157,1,
-235.49295130749687,-194.80149227661059,302.44884281955819,0.46274509803921571,0.49411764705882355,0.69215686274509802,1,
-233.61503523636472,-194.82072589291715,302.44555510907099,0.82139037433155071,0.93083778966131892,0.8549019607843138,1,
-232.64248764880563,-194.57725226819434,302.29615997889925,0.72653594771241814,0.78614379084967323,0.77385620915032682,1,
-231.45065797167715,-194.50264608913415,302.34781001851729,0.43676470588235294,0.45637254901960783,0.54362745098039211,1,
-214.90686256339347,-194.73155275733234,302.3833559598188,0.65686274509803921,0.64901960784313728,0.74313725490196081,1,
-258.40555201011057,-193.8445828641841,302.131285837105,0.68718487394957983,0.75126050420168033,0.69425770308123247,1,
-256.95543919880379,-193.34844364367027,302.44559462914822,0.55311942959001792,0.67985739750445628,0.62513368983957229,1,
-255.67555197952117,-193.48930225194627,302.44241802322489,0.55947712418300666,0.67861811391223148,0.62259570494864613,1,
-254.60472991924306,-193.38242780629565,302.44663764237845,0.5747450980392157,0.69882352941176462,0.62243137254901959,1,
-253.08717538704894,-193.50532045181529,302.43985686570329,0.59215686274509793,0.7210457516339871,0.63294117647058812,1,
-252.14256348895708,-193.52412476250691,302.44393476750673,0.56062745098039213,0.66572549019607863,0.63435294117647067,1,
-250.75864809843833,-193.51898145664015,302.43746802638083,0.60087145969498901,0.70479302832244028,0.64575163398692803,1,
-249.82525897322915,-193.64386749271074,302.17267455168451,0.60568627450980383,0.70215686274509803,0.63921568627450975,1,
-248.33147957662143,-193.59614066166847,302.44821177365043,0.54490196078431374,0.63372549019607849,0.59921568627450972,1,
-247.33497055364455,-193.56622051693279,302.44199383114733,0.48202614379084963,0.57647058823529418,0.54313725490196074,1,
-245.67467373269869,-193.57342506240437,302.22752430763444,0.54489164086687314,0.64726522187822499,0.57770897832817336,1,
-245.13623931330858,-193.16215779213053,302.40154658827123,0.52941176470588236,0.58039215686274515,0.71764705882352942,1,
-243.42133468092914,-193.69032434440214,302.44666910903106,0.47450980392156861,0.58039215686274515,0.45098039215686275,1,
-242.54390622023197,-193.63411856772927,302.44627442044703,0.4823529411764706,0.57549019607843133,0.43725490196078431,1,
-240.81985569945869,-193.46465179122197,302.18941945834854,0.49281045751633989,0.51973856209150338,0.69359477124183011,1,
-240.02705355304715,-193.88738782424753,302.45640550987218,0.49411764705882355,0.52450980392156865,0.73529411764705888,1,
-237.33402139658187,-193.32450595697992,302.3632702925172,0.62352941176470589,0.71333333333333315,0.59725490196078435,1,
-236.27616498817062,-193.62323279197042,302.24425066183392,0.54491129785247439,0.58487394957983208,0.76881419234360393,1,
-235.532728759478,-193.63622512457823,302.15915738949661,0.79215686274509811,0.84705882352941175,0.9274509803921569,1,
-232.86064308426307,-193.98417056777362,302.40532623338368,0.8784313725490196,0.9509803921568627,0.90196078431372539,1,
-223.42751783537312,-194.01972248431321,302.08889644086412,0.5725490196078431,0.66666666666666663,0.37254901960784315,1,
-214.72999992287828,-193.82359464628962,302.29458209788618,0.66078431372549018,0.6774509803921569,0.78823529411764703,1,
-258.19058686118308,-192.60945714496464,302.46348063893811,0.48734402852049907,0.5639928698752229,0.53796791443850267,1,
-256.93078215318548,-192.25016399632284,302.44431609125991,0.56674509803921569,0.68956862745098046,0.64564705882352957,1,
-255.78911830838686,-192.34127168673621,302.44024654495496,0.56780185758513935,0.68421052631578938,0.6596491228070176,1,
-254.52693011983467,-192.23120165712788,302.44455362509802,0.5423831070889894,0.67134238310708927,0.59215686274509804,1,
-253.48782709864071,-192.42555109649922,302.4386767983994,0.57429193899782127,0.70283224400871447,0.62309368191721137,1,
-252.14538277099936,-192.38360636206014,302.43900281461458,0.59976931949250278,0.70888119953863915,0.64590542099192616,1,
-251.08933304308439,-192.24133245202779,302.43687452895074,0.38921568627450981,0.47549019607843135,0.47941176470588237,1,
-249.6176388207308,-192.54680185968348,302.08825413832739,0.51204481792717094,0.59887955182072827,0.53893557422969185,1,
-247.92197695927359,-192.19387082330286,302.44309540080394,0.69411764705882351,0.78823529411764703,0.71372549019607845,1,
-247.17240206357155,-192.27472293610992,302.44145539500886,0.6468281430219146,0.76655132641291801,0.68858131487889274,1,
-246.05307466091853,-192.32881252787604,302.44200994275161,0.58980392156862738,0.69490196078431377,0.63450980392156864,1,
-245.11374000063785,-192.53808972422348,302.06372596268238,0.5926470588235293,0.66617647058823526,0.67156862745098045,1,
-242.4470167562956,-192.25081124261578,302.4452602383576,0.48333333333333334,0.58137254901960778,0.44607843137254899,1,
-240.98694853701892,-192.25743639062597,302.32303094738791,0.56292335115864522,0.6260249554367201,0.65775401069518702,1,
-240.22602485632427,-192.20597660353167,302.29191478656548,0.5286274509803921,0.55607843137254909,0.76313725490196072,1,
-237.95275927565501,-192.82625736650516,302.26554529804162,0.90196078431372551,0.98039215686274506,0.87058823529411766,1,
-214.33900220733133,-192.17882184499047,302.06982630275547,0.72254901960784301,0.75098039215686263,0.82892156862745103,1,
-258.11521547451201,-191.16717965289354,302.31445367787433,0.42296918767507008,0.46610644257703082,0.4285714285714286,1,
-256.8171389777832,-191.2486684503989,302.44155840193798,0.56519607843137243,0.69117647058823539,0.6284313725490196,1,
-255.80665667619795,-190.93566256900064,302.43867320879139,0.55324283559577669,0.67149321266968343,0.62895927601809964,1,
-254.61313276471358,-191.0608718423068,302.43960490359046,0.55650623885918005,0.67308377896613192,0.6024955436720143,1,
-253.51942538453048,-191.05088227573481,302.3717257818509,0.55044563279857395,0.67771836007130126,0.60998217468805715,1,
-251.94830492888343,-191.22192982308633,302.43642723112697,0.54358974358974366,0.67360482654600307,0.59909502262443437,1,
-250.94511896488953,-191.03890892605335,302.44290049360245,0.5083333333333333,0.61593137254901964,0.54436274509803917,1,
-249.40990668733565,-191.19383186383232,302.04597021755319,0.40392156862745099,0.48104575163398688,0.44575163398692813,1,
-248.88447152383475,-191.13037729050598,302.23437817562592,0.43607843137254898,0.49176470588235294,0.50823529411764701,1,
-246.9110903611832,-191.04646102531126,302.41520240100408,0.71907308377896617,0.81390374331550785,0.74010695187165776,1,
-246.13761869335448,-190.96797651102921,302.38887700254401,0.70316742081447969,0.80754147812971344,0.72609351432880853,1,
-244.66119084447985,-191.29430333322262,302.15981765309152,0.74509803921568629,0.81568627450980391,0.79019607843137263,1,
-213.99717334525309,-191.15437843908012,302.4838003318564,0.74313725490196081,0.70196078431372544,0.79411764705882359,1,
-257.72547204350434,-189.66856288036877,302.1337477426955,0.32337858220211158,0.3800904977375566,0.36319758672699853,1,
-256.99264527775853,-189.86318827164229,302.23639833033167,0.53921568627450989,0.61540616246498603,0.55882352941176472,1,
-255.65532315163924,-189.82467047075181,302.43671751106535,0.56676003734827285,0.68571428571428572,0.64649859943977595,1,
-254.44879116717806,-189.88799379639292,302.43880967351697,0.55455594002306807,0.68027681660899664,0.59469434832756629,1,
-253.20996017161451,-189.80718561145332,302.43531916641473,0.55768833849329202,0.68751289989680076,0.60784313725490202,1,
-251.95656713829757,-189.96073707424148,302.43627466170932,0.54684095860566451,0.67233115468409577,0.60435729847494546,1,
-250.86773951119608,-189.90253172823657,302.44035463084629,0.5522058823529411,0.67107843137254897,0.59509803921568616,1,
-249.97427453532839,-189.75292075339212,302.43361911516331,0.46209150326797382,0.54379084967320257,0.50065359477124194,1,
-213.83370043559086,-190.02708163725401,302.15066878156449,0.51372549019607838,0.57450980392156858,0.65882352941176459,1,
-213.54125361157134,-189.57578730862679,302.57726975662536,0.43333333333333335,0.46078431372549022,0.38039215686274508,1,
-257.41604899817833,-188.36234972070542,302.33594243895823,0.44705882352941179,0.54117647058823526,0.48627450980392156,1,
-255.75478200240863,-188.63836977926763,302.43833479283279,0.58061002178649235,0.70130718954248372,0.65577342047930276,1,
-254.63192338488983,-188.57274771034716,302.43692760458464,0.64089635854341742,0.74397759103641448,0.69859943977591032,1,
-253.33911783605944,-188.78081887649529,302.43773447447609,0.6542483660130719,0.75359477124183005,0.68823529411764706,1,
-252.28434631416025,-188.98144076047174,302.43429026768354,0.5490196078431373,0.68823529411764706,0.65294117647058825,1,
-250.87496035537282,-189.01030253289264,302.44073239418913,0.88784313725490205,0.92313725490196075,0.8329411764705883,1,
-213.31113138081281,-188.29576562211514,302.20432422955412,0.69803921568627447,0.73856209150326801,0.7594771241830065,1,
-257.01619638053978,-187.37213834185695,302.43734222025864,0.39852941176470591,0.47009803921568627,0.43235294117647055,1,
-255.38469548547243,-187.71832525146692,302.43758795791109,0.98039215686274506,0.99607843137254903,0.90588235294117647,1,
-254.86854683777455,-187.89390099271941,302.43763188934736,0.9882352941176471,0.99607843137254903,0.9274509803921569,1,
-213.36431730528932,-187.84318144909662,302.05411073609412,0.55392156862745101,0.59705882352941175,0.65980392156862744,1,
-256.60665174722538,-185.75927253844299,301.99862525705612,0.35424836601307186,0.41535947712418292,0.35620915032679745,1,
-212.8486786088904,-185.85965700538054,302.08135936845792,0.52156862745098032,0.53529411764705881,0.5117647058823529,1,
-256.70871778814802,-185.30188057951591,302.06991998397825,0.39346405228758169,0.46797385620915033,0.39999999999999997,1,
-256.14896590934438,-183.11628719857254,302.51590631110048,0.25490196078431371,0.29019607843137257,0.27843137254901962,1,
-255.95425193142535,-182.5310998498253,302.34099838253314,0.21372549019607845,0.20784313725490197,0.24509803921568629,1,
-255.6034601397017,-181.32137154436484,302.06519305790715,0.34621848739495797,0.35518207282913167,0.41904761904761911,1,
-255.34834121299116,-180.16404612524184,302.33983853236168,0.48627450980392156,0.58039215686274515,0.58823529411764708,1,
-211.09870744969089,-179.92094637207856,302.06963791101771,0.60196078431372546,0.70588235294117641,0.55882352941176472,1,
-254.9226361574286,-178.49929181920743,302.39910871728171,0.42875816993464055,0.41437908496732023,0.53464052287581698,1,
-254.57293776078527,-177.49850387663912,301.95089640541408,0.55076252723311547,0.55686274509803924,0.74248366013071909,1,
-254.16133755656989,-175.39110573864036,302.39765870608892,0.52418300653594774,0.47058823529411764,0.66143790849673201,1,
-253.62925814349541,-173.75207309441976,302.16568359662688,0.59901960784313724,0.56862745098039214,0.80784313725490198,1,
-253.50664925192251,-172.75191553210334,302.43439266882888,0.61372549019607847,0.59411764705882353,0.83137254901960778,1,
-253.26286576213636,-171.99497303238331,302.33869331595997,0.65490196078431373,0.69803921568627447,0.91764705882352937,1,
-208.86074021700313,-171.23953128589164,302.43944622270647,0.5725490196078431,0.61960784313725492,0.55294117647058827,1,
-252.89508169337199,-170.8501587097544,301.69800768874211,0.61372549019607847,0.6215686274509804,0.83725490196078423,1,
-215.05451490125199,-170.08584448035435,301.67612568334334,0.50196078431372548,0.5607843137254902,0.48627450980392156,1,
-252.70460400758782,-169.60983800345275,302.34882736863256,0.44705882352941179,0.38039215686274508,0.68627450980392157,1,
-252.60845781836127,-169.30604930811,301.84816424972894,0.51372549019607849,0.51372549019607838,0.70718954248366017,1,
-251.82258786469208,-166.16166356982376,302.37139905807453,0.36470588235294116,0.32549019607843138,0.52941176470588236,1,
-251.55537150798796,-165.31629171898487,302.06699457683783,0.33986928104575165,0.34509803921568627,0.41176470588235292,1,
-382.05904287903297,-162.5352562587068,301.54719903862315,0.99607843137254903,0.91764705882352937,0.95294117647058818,1,
-380.48530062266411,-162.94065122849588,301.63653358272313,0.96862745098039216,0.91764705882352937,0.95294117647058818,1,
-250.880928092099,-162.46127186889225,302.39054454114012,0.27450980392156865,0.27058823529411763,0.34509803921568627,1,
-250.52466274390756,-161.32389065333541,301.97131666767518,0.29411764705882354,0.29411764705882354,0.26078431372549016,1,
-249.84928793298639,-158.41163213053733,302.535542947453,0.36078431372549025,0.39019607843137255,0.33725490196078434,1,
-249.44672924125416,-157.11591586921259,301.98815026267312,0.32941176470588235,0.36470588235294121,0.28431372549019607,1,
-351.95222842255208,-154.44304642869611,301.56686598445503,0.47647058823529409,0.57450980392156858,0.49019607843137253,1,
-248.73183655057335,-154.0116702500427,302.67848843323009,0.38039215686274508,0.43137254901960786,0.44313725490196076,1,
-351.583184010065,-153.04242338118001,301.64443062062674,0.4823529411764706,0.57647058823529407,0.47058823529411764,1,
-248.45452533617862,-153.10809712010098,301.9595380010287,0.40784313725490196,0.43006535947712421,0.37516339869281051,1,
-31.134054977895175,-131.73868613193918,301.68932901347034,1,0.99215686274509807,0.99607843137254903,1,
-304.74788546727831,-115.81352400753531,302.04576457123267,0.80637254901960775,0.8578431372549018,0.76666666666666672,1,
-233.53439267350257,-100.89452424011824,302.10807661546824,0.6588235294117647,0.72352941176470598,0.61372549019607847,1,
-240.50682771342952,-99.105092515401338,302.6511080850014,0.55294117647058827,0.63921568627450975,0.51764705882352946,1,
-238.54124791594461,-99.075483484512006,302.72319121081637,0.60784313725490202,0.67843137254901964,0.59215686274509804,1,
